ply
format ascii 1.0
comment VCGLIB generated
element vertex 421
property float x
property float y
property float z
property float nx
property float ny
property float nz
property uchar red
property uchar green
property uchar blue
element face 0
property list uchar int vertex_indices
end_header
0.1566854 -0.1810056 -0.1645222 0.5393944 -0.6231174 -0.5663729 211 168 62
0.1281901 -0.08139326 -0.2081757 0.4974939 -0.3158798 -0.8079107 199 138 43
0.1274553 -0.2451408 -0.20228 0.3722119 -0.7158927 -0.5907249 186 140 56
0.125846 -0.09454215 -0.1873055 0.51437 -0.3864217 -0.7655728 240 194 69
0.115571 0.06395885 -0.1854687 0.5075645 0.2808943 -0.8145408 217 175 57
0.1139645 0.2624617 -0.1989651 0.3270023 0.7530906 -0.5708976 180 182 87
0.1130721 -0.1108011 -0.1984653 0.4453913 -0.4364459 -0.7817554 211 164 48
0.1086748 0.2282209 -0.1827526 0.3484072 0.7316669 -0.5858975 173 166 77
0.1020142 -0.352892 -0.1189919 0.2641943 -0.913913 -0.3081628 192 148 93
0.07824282 -0.2766642 -0.1817188 0.2300397 -0.813413 -0.5342668 174 125 77
0.0139297 -0.2129244 -0.1963081 0.04804269 -0.734363 -0.6770546 223 139 38
-0.01823926 0.07517917 -0.1725674 -0.09644587 0.3975338 -0.9125049 217 176 79
-0.05391981 -0.06444412 -0.1550407 -0.3057609 -0.3654407 -0.8791834 211 170 63
-0.07077055 -0.07002394 -0.161005 -0.3738542 -0.3699101 -0.850529 209 168 55
-0.1017729 -0.003475644 -0.1283779 -0.6210898 -0.02121082 -0.7834524 205 167 68
-0.1214477 -0.1630749 -0.02464104 -0.5929561 -0.7961966 -0.1203074 151 84 19
-0.1906648 0.1755697 0.05458832 -0.7198349 0.6628451 0.2060924 84 59 35
0.1841328 0.1229901 -0.2141514 0.5977448 0.399259 -0.6951931 131 154 73
0.1841328 0.1229901 -0.2141514 0.5977448 0.399259 -0.6951931 131 154 73
0.1278234 0.03350716 -0.2139702 0.508274 0.1332371 -0.8508264 225 182 61
0.1273391 -0.09760502 -0.2151012 0.4745302 -0.3637258 -0.8015763 236 195 75
0.1126845 0.04857893 -0.2050705 0.4715219 0.2032758 -0.858106 220 176 59
0.1089678 0.2187719 -0.2064438 0.3406006 0.6838152 -0.6452813 179 173 78
0.1006207 -0.1151743 -0.2036972 0.3950251 -0.4521606 -0.7996911 232 189 72
0.09140277 0.08091454 -0.197855 0.3931594 0.3480454 -0.8510524 241 201 85
0.09643912 -0.3419538 -0.1546631 0.2488774 -0.8824693 -0.3991341 192 147 94
0.07359171 -0.2886944 -0.2113419 0.2014695 -0.7903489 -0.5785834 177 130 79
0.07297134 0.01797678 -0.1729889 0.3868934 0.09531273 -0.9171854 224 179 77
0.02130914 -0.3083589 -0.4884148 0.03686678 -0.5334895 -0.8450028 188 143 87
0.01193142 -0.2137716 -0.2083225 0.03994064 -0.715604 -0.6973633 225 147 27
0.00518918 0.2372398 -0.1931896 0.01695848 0.7753105 -0.6313525 233 178 64
0.002355337 0.2390397 -0.2012329 0.007537698 0.7649899 -0.6439982 232 179 64
-0.001610518 0.1065277 -0.2024288 -0.007040405 0.4656878 -0.8849211 205 162 58
-0.1447444 0.04740204 -1.026274 -0.1395108 0.04568809 -0.989166 204 159 46
-0.01680946 -0.06492931 -0.1894627 -0.08363593 -0.3230575 -0.9426765 200 147 47
-0.02442575 0.08188803 -0.2080841 -0.1085843 0.3640322 -0.9250351 112 103 68
-0.02442575 0.08188803 -0.2080841 -0.1085843 0.3640322 -0.9250351 112 103 68
-0.0551796 -0.05326352 -0.162714 -0.3067539 -0.2961021 -0.9045582 216 176 63
-0.108572 0.0164309 -0.166357 -0.5446842 0.08243056 -0.8345803 216 176 69
-0.108572 0.0164309 -0.166357 -0.5446842 0.08243056 -0.8345803 216 176 69
-0.2139754 0.08301884 -0.1094265 -0.841538 0.3265024 -0.4303604 78 62 43
0.2411127 0.008131918 -0.1994238 0.770319 0.02598026 -0.6371292 222 182 77
0.2404375 -0.1671853 -0.1999693 0.678032 -0.4714614 -0.563912 178 124 48
0.2286186 0.1698774 -0.1979265 0.6591426 0.4897825 -0.5706525 123 166 93
0.2140074 -0.3651373 -0.1863403 0.4627826 -0.7895952 -0.4029537 192 147 94
0.2048883 -0.1260667 -0.2037926 0.6498551 -0.3998523 -0.6463796 227 183 68
0.2011151 0.02841532 -0.2095871 0.689084 0.09735987 -0.7181116 221 183 77
0.18155 0.09635037 -0.2238426 0.5974196 0.3170564 -0.7365901 226 183 74
0.4030738 0.217802 0.4903564 0.6006296 0.3245519 0.7306916 122 168 98
0.1768012 -0.3781735 -0.1420326 0.4009447 -0.8576109 -0.3220975 190 147 94
0.1392708 0.1872968 -0.2075243 0.4459257 0.5996982 -0.6644639 127 169 98
0.1334286 0.1888821 -0.218256 0.4196047 0.5939944 -0.6863691 126 166 94
0.1265955 0.01285195 -0.2187214 0.5002929 0.05078964 -0.8643653 225 183 72
0.1072822 0.2011402 -0.2121429 0.3445129 0.6459173 -0.6812501 182 177 78
0.09610367 -0.1309349 -0.2176189 0.3539115 -0.4821811 -0.8014038 224 181 72
0.07244873 -0.301237 -0.2150841 0.1920875 -0.7986868 -0.5702647 184 138 81
0.0743351 0.01942883 -0.1690321 0.4003516 0.1046392 -0.9103676 227 183 70
0.008180618 -0.2198811 -0.219101 0.02634529 -0.7081164 -0.7056041 231 149 40
-0.007472515 0.1054469 -0.2189903 -0.03072959 0.4336345 -0.9005647 195 145 44
-0.02939701 0.0820666 -0.2220383 -0.1232386 0.3440408 -0.930832 116 102 72
-0.02974272 0.2602801 -0.2145157 -0.08784127 0.7687037 -0.6335443 230 149 59
-0.02779865 -0.1363449 -0.2087145 -0.110819 -0.5435371 -0.8320376 238 123 12
-0.03320408 -0.2558202 -0.1824961 -0.1050787 -0.8095766 -0.5775328 235 111 10
-0.04037905 -0.2566558 -0.1951733 -0.1242607 -0.7898213 -0.6006177 236 112 13
-0.1201997 0.03535837 -0.198494 -0.512077 0.1506344 -0.8456278 136 140 103
-0.1429167 0.3190281 -0.1727085 -0.3665345 0.8182029 -0.4429409 252 122 20
-0.1851573 -0.02913351 -0.205308 -0.6660362 -0.1047972 -0.7385209 106 102 38
-0.2157836 0.1129927 -0.116004 -0.7998195 0.4188168 -0.4299782 75 71 40
0.2421312 -0.0295366 -0.1998825 0.7677891 -0.09365944 -0.6338199 225 185 73
0.201005 -0.1579495 -0.212944 0.6041439 -0.4747358 -0.6400281 181 132 51
0.1366138 0.162555 -0.2134323 0.4537669 0.5399313 -0.7089216 128 167 98
0.1266384 0.01979581 -0.220005 0.4973623 0.07774646 -0.8640522 222 177 70
0.0937767 -0.1513468 -0.2226009 0.3289882 -0.5309561 -0.7809304 227 183 81
0.07058334 -0.3141844 -0.2188129 0.1812973 -0.8070004 -0.5620335 192 146 91
0.1240282 0.02947875 -0.07906723 0.8267882 0.1965092 -0.5270725 230 186 77
-0.008588791 0.2393763 -0.2205162 -0.02637999 0.7352309 -0.6773033 239 188 75
-0.02685356 -0.0694633 -0.2184296 -0.1163618 -0.3009983 -0.9464988 211 159 49
-0.04007435 -0.1388154 -0.2305679 -0.1472792 -0.5101672 -0.8473713 237 132 12
-0.05892849 -0.2605202 -0.2279606 -0.1678136 -0.7418966 -0.6491749 240 116 6
-0.06366825 0.1587539 -0.2205 -0.2281493 0.56888 -0.7901414 98 100 106
-0.1141367 -0.1319131 -0.2004824 -0.4294939 -0.4963863 -0.7544108 218 179 72
-0.1450987 0.04722735 -0.2418261 -0.5074376 0.165163 -0.8457116 65 98 124
-0.1513767 0.3376798 -0.1876564 -0.3648347 0.8138458 -0.4522727 250 127 15
-0.2049599 -0.01252212 -0.1996708 -0.7156035 -0.04372013 -0.6971371 87 96 45
-0.1804848 0.2490627 -0.07251453 -0.5711277 0.7881362 -0.2294656 148 105 27
-0.1980591 0.1349899 -0.08726597 -0.7764633 0.5292094 -0.3421142 66 86 36
-0.1664352 -0.05227382 0.007632256 -0.9531384 -0.2993608 0.04370826 72 70 40
-0.3056631 0.2377015 -0.2174358 -0.6883007 0.5352629 -0.4896281 91 93 45
0.2367163 -0.06515408 -0.2085876 0.7347737 -0.20224 -0.6474617 224 182 74
0.1218576 -0.00795165 -0.227087 0.4726111 -0.03083958 -0.8807313 203 135 12
0.1740389 -0.3124904 -0.09756374 0.4694189 -0.8428513 -0.2631496 195 149 88
0.06075478 0.04090144 -0.1578026 0.3492246 0.2351057 -0.9070653 236 193 72
-0.03180408 -0.08029491 -0.2246675 -0.1321342 -0.3335955 -0.9334102 201 139 43
-0.05775642 -0.2676858 -0.2266293 -0.1624833 -0.7530672 -0.6375649 239 115 10
-0.07521057 0.1495639 -0.2347012 -0.2608859 0.5187982 -0.8141173 89 104 120
-0.07521057 0.1495639 -0.2347012 -0.2608859 0.5187982 -0.8141173 89 104 120
-0.1325531 -0.1358488 -0.2226992 -0.4530039 -0.464267 -0.7610806 168 160 67
-0.145092 0.3221246 -0.2081537 -0.3538367 0.7855672 -0.5076257 250 127 23
-0.1478224 0.324353 -0.2105198 -0.3570808 0.7835096 -0.5085332 250 127 19
-0.1698065 0.3493049 -0.2097549 -0.3846886 0.7913339 -0.47519 251 103 10
0.7762365 -0.0651965 0.9136581 0.6465126 -0.05430092 0.7609684 106 102 84
-0.2152119 -0.002852601 -0.2119684 -0.7124233 -0.009443064 -0.7016864 104 100 40
-0.2152119 -0.002852601 -0.2119684 -0.7124233 -0.009443064 -0.7016864 104 100 40
-0.2386742 -0.1682738 -0.2272921 -0.6449637 -0.4547226 -0.6142061 88 97 47
-0.236393 -0.1731005 -0.2074718 -0.6584533 -0.4821573 -0.5778959 89 99 54
-0.1585226 -0.231833 -0.1157532 -0.5218549 -0.7631919 -0.3810583 70 58 29
-0.1502275 -0.04397314 0.02615738 -0.9466045 -0.2770808 0.1648213 80 99 42
-0.1199856 -0.1923213 0.2259169 -0.3749138 -0.6009382 0.7059128 158 126 87
0.2196846 -0.1001795 -0.2254934 0.6649647 -0.3032339 -0.6825475 175 136 89
0.1934147 -0.2457441 -0.2336512 0.4954593 -0.6295085 -0.5985308 195 151 93
0.1153727 -0.03715684 -0.2338295 0.4380505 -0.1410782 -0.8878112 229 183 72
0.06548309 -0.3503375 -0.2261591 0.1551347 -0.8299778 -0.5357891 196 146 87
0.06548309 -0.3503375 -0.2261591 0.1551347 -0.8299778 -0.5357891 196 146 87
0.06354713 -0.350104 -0.2273474 0.1504953 -0.8291326 -0.5384147 196 147 87
0.06354713 -0.350104 -0.2273474 0.1504953 -0.8291326 -0.5384147 196 147 87
0.06068325 -0.3744406 -0.2044573 0.1408229 -0.8689355 -0.4744683 196 150 95
0.1316938 -0.3465608 -0.1361828 0.3334359 -0.877458 -0.3448014 192 144 87
0.06214523 -0.3716772 -0.1847315 0.1480775 -0.8856195 -0.4401717 198 147 95
-0.005261421 -0.2740134 -0.2354603 -0.01456164 -0.7583665 -0.6516658 182 133 81
-0.06723118 -0.2808655 -0.2350655 -0.1805482 -0.7542596 -0.6312644 185 76 13
-0.2368355 -0.002488935 -0.2302532 -0.7169799 -0.007534835 -0.6970532 127 124 45
-0.2573328 -0.1719282 -0.2251015 -0.6724349 -0.4492645 -0.5882114 94 116 57
-0.1860714 -0.2222507 -0.1388979 -0.5789049 -0.6914659 -0.4321389 85 103 54
-0.05926514 -0.03199256 0.09986687 -0.4920129 -0.2655988 0.8290842 26 66 17
-0.06807423 -0.35405 0.1215782 -0.1789156 -0.9305295 0.3195371 166 134 86
-0.1190691 -0.04622886 0.2226257 -0.4639091 -0.1801138 0.8673795 131 102 66
0.05437183 -0.370082 -0.2334132 0.1233182 -0.8393658 -0.5293937 196 150 92
0.1557636 -0.3617167 -0.1217165 0.3778755 -0.8775082 -0.2952787 197 149 99
-0.2157679 0.003606791 -0.2417707 -0.6658047 0.01112964 -0.746043 85 102 82
-0.1866751 0.3434881 -0.221837 -0.415302 0.764169 -0.493528 255 128 14
-0.2502203 -0.1998247 -0.2296872 -0.6349536 -0.5070707 -0.5828493 94 121 44
-0.2645302 -0.1785995 -0.2294068 -0.6729904 -0.4543744 -0.5836332 87 127 53
-0.05733871 -0.3402507 -0.1023407 -0.1593161 -0.9453893 -0.2843545 179 145 93
-0.2036724 -0.2112398 -0.1492648 -0.6186546 -0.6416405 -0.4533916 90 119 51
-0.2158194 -0.06612637 -0.08043242 -0.9006552 -0.2759579 -0.3356597 87 116 50
-0.2152634 -0.04375131 -0.06655693 -0.9378593 -0.1906157 -0.2899752 87 117 52
-0.1635742 0.08749101 0.01114416 -0.8802027 0.4707943 0.0599674 59 85 33
-0.0793438 -0.3365621 0.1150503 -0.2177229 -0.9235412 0.3157031 167 135 90
-0.0926342 -0.009389268 0.2354898 -0.3658125 -0.03707823 0.9299496 83 67 48
-0.1082659 -0.01223104 0.2954855 -0.3437743 -0.03883695 0.9382488 125 103 68
-0.1082659 -0.01223104 0.2954855 -0.3437743 -0.03883695 0.9382488 125 103 68
0.1521568 -0.3707448 -0.1231952 0.362916 -0.88428 -0.2938383 180 143 99
-0.2341003 -0.02688966 -0.244024 -0.690103 -0.07926787 -0.719357 139 152 71
-0.1914711 0.3276435 -0.2238832 -0.4345614 0.7436174 -0.5081236 254 130 13
-0.2155647 -0.01966183 -0.1165137 -0.8769013 -0.07998286 -0.4739692 96 129 57
-0.2262096 -0.06098612 -0.08424234 -0.908576 -0.2449521 -0.3383612 94 129 64
-0.2311535 -0.03578775 -0.07238889 -0.9440512 -0.1461603 -0.2956426 93 130 62
-0.1824379 -0.09502664 0.06302571 -0.84799 -0.4416936 0.29295 87 129 60
-0.0990715 0.02529502 0.2323945 -0.3902081 0.09962824 0.9153207 80 65 45
-0.1989822 0.3042701 -0.2258288 -0.4649259 0.7109331 -0.5276533 255 132 13
0.1096935 -0.3688599 -0.1316303 0.2697063 -0.9069254 -0.3236428 177 145 98
-0.2297478 -0.02463045 -0.1191816 -0.8836783 -0.09473605 -0.4584078 101 141 74
-0.2195377 -0.03416733 -0.1027809 -0.8967963 -0.1395712 -0.4198526 98 135 65
-0.2354755 -0.06169081 -0.0859378 -0.9121767 -0.2389757 -0.3329028 101 142 71
-0.2390995 -0.03400917 -0.07383905 -0.9467717 -0.1346674 -0.2923834 102 142 66
-0.1621494 0.2528966 0.001672298 -0.5397432 0.8418114 0.005566541 254 132 9
-0.1900101 0.1249292 0.004185459 -0.8354319 0.5492858 0.01840253 96 139 74
-0.1302567 0.2528513 0.1586092 -0.3999718 0.7764163 0.4870322 147 140 57
-0.1246147 0.2095017 0.163764 -0.4243448 0.7134064 0.5576582 98 139 67
-0.2434025 -0.1818105 -0.1672415 -0.7018546 -0.5242532 -0.4822433 112 155 85
-0.05447197 -0.3561881 -0.1349905 -0.1415647 -0.9256805 -0.3508205 186 155 109
-0.234457 0.123013 -0.1217367 -0.8045495 0.4221246 -0.4177449 169 167 77
-0.2297878 0.1455408 -0.1073491 -0.7858192 0.4977145 -0.3671082 165 165 73
-0.2244453 -0.04533684 -0.1029514 -0.8939978 -0.1805831 -0.4100702 104 152 68
-0.2540035 -0.2301907 -0.09962296 -0.7115467 -0.6448392 -0.2790764 110 156 79
-0.2282143 0.1285601 -0.08588225 -0.8279008 0.4663818 -0.311558 128 161 94
-0.2500839 -0.06827939 -0.08614634 -0.9154675 -0.2499463 -0.3153508 110 155 81
-0.2550354 -0.03892972 -0.07402375 -0.9502095 -0.1450441 -0.2757973 112 154 87
0.5107365 0.03618899 -0.06334344 0.9899522 0.07014453 -0.1227776 112 154 81
-0.222126 0.296097 0.02184393 -0.5990499 0.7985417 0.05891071 254 134 26
-0.1970711 0.1113161 0.02458439 -0.8656076 0.4889408 0.1079835 110 158 90
-0.0226593 0.01486025 0.02241105 -0.6443841 0.4225951 0.6373245 110 157 86
-0.1460094 0.264398 0.1254073 -0.4464639 0.8084695 0.3834673 255 135 27
-0.1556053 -0.02217662 0.1314402 -0.7594449 -0.1082349 0.641505 104 154 78
-0.2415066 -0.2844666 -0.241276 -0.5434862 -0.6401634 -0.5429674 187 151 96
-0.2411366 -0.2710159 -0.2257121 -0.5643924 -0.6343266 -0.5282906 151 116 59
-0.2357235 -0.2033497 -0.1688061 -0.6656303 -0.574214 -0.4766705 120 165 93
-0.2416687 -0.05094263 -0.1180649 -0.8828129 -0.1860928 -0.4312896 121 165 91
-0.1157722 -0.337522 -0.1258252 -0.3059843 -0.8920658 -0.3325541 192 161 112
-0.3115921 -0.2500577 -0.09089637 -0.760477 -0.6102952 -0.2218432 118 164 91
-0.2271061 0.07089644 -0.09120417 -0.8913205 0.2782464 -0.3579479 91 112 58
-0.222435 0.2769293 0.007808208 -0.6260731 0.7794546 0.02197725 255 135 27
-0.2201519 0.2817661 0.03146219 -0.613313 0.7849616 0.08764935 255 137 12
-0.2101374 0.222665 -0.2002087 -0.5744355 0.6086813 -0.5472941 245 194 78
-0.2481613 -0.07247613 -0.1162882 -0.8754165 -0.2556676 -0.4102195 102 142 67
-0.1278601 -0.3283837 -0.1218019 -0.342923 -0.8807312 -0.3266748 189 160 111
-0.2229414 0.2781391 0.008004665 -0.625273 0.7800832 0.0224503 255 138 11
-0.2287836 0.2863148 0.03452826 -0.6214966 0.7777816 0.09379689 254 137 21
-0.2345896 -0.02705323 0.07472563 -0.9471271 -0.1092241 0.3016957 124 171 99
-0.1593313 0.2943108 0.1658902 -0.4265553 0.7879168 0.4441145 254 166 87
-0.1618986 0.3198855 0.1837392 -0.4018709 0.794032 0.4560844 254 135 33
-0.1654558 0.3201025 0.1858425 -0.4080932 0.7895257 0.4583765 254 135 33
-0.2423325 -0.337148 -0.2295303 -0.5107932 -0.7106473 -0.4838086 191 161 111
-0.2143679 0.1555602 -0.2310266 -0.609931 0.4426082 -0.6573295 230 192 87
-0.2143679 0.1555602 -0.2310266 -0.609931 0.4426082 -0.6573295 230 192 87
-0.2452211 0.02423118 -0.121439 -0.8926404 0.08820499 -0.4420555 131 176 104
-0.2461472 0.02446561 -0.1207056 -0.8943014 0.0888884 -0.4385474 131 176 104
-0.2438545 -0.09797025 -0.1192026 -0.8450455 -0.3395029 -0.4130808 133 183 104
-0.2530546 -0.1273899 -0.1055174 -0.8370361 -0.4213712 -0.3490229 125 170 93
-0.1591368 -0.3298475 -0.1047411 -0.4177774 -0.8659396 -0.2749739 193 162 110
-0.2037687 0.3666524 0.1516256 -0.4568461 0.8220286 0.3399421 255 138 19
0.2126465 -0.1575596 0.08174706 0.7676911 -0.5688179 0.2951212 143 111 69
-0.2410727 -0.3697103 -0.2316523 -0.4836328 -0.7417019 -0.4647339 190 157 106
0.1954088 -0.0361914 -0.4710779 0.3821942 -0.07078565 -0.9213669 95 137 66
-0.2537441 -0.1269997 -0.1123161 -0.8314791 -0.4161579 -0.3680421 134 175 101
-0.2681055 -0.08277467 0.05136871 -0.939877 -0.2901768 0.1800794 124 167 95
-0.2222633 0.3571698 0.1598797 -0.4938786 0.7936465 0.3552594 254 145 13
-0.2279787 0.3766324 0.1717854 -0.482408 0.7969624 0.3635016 255 139 19
-0.2111921 -0.1458366 0.2121754 -0.6342111 -0.4379482 0.6371638 141 117 84
0.1008663 -0.3694828 0.09639263 0.255392 -0.9355251 0.2440647 181 144 108
0.08123302 -0.3109956 0.1497774 0.2290752 -0.8770002 0.4223687 185 148 104
-0.2553158 -0.3354067 -0.1579962 -0.5671632 -0.7450786 -0.3509756 197 165 113
-0.2553625 -0.008486235 -0.1112537 -0.9163473 -0.03045215 -0.3992248 77 132 50
-0.2590895 -0.3400233 -0.1057549 -0.5883426 -0.7721279 -0.240149 194 160 109
-0.2437201 0.01787477 -0.09830093 -0.9252684 0.06786046 -0.3731935 134 176 102
-0.2390194 0.3762338 0.1847219 -0.4953791 0.7797623 0.382845 255 142 21
0.12745 0.07949597 0.1442671 0.611948 0.381698 0.6926949 90 70 54
-0.04093742 -0.350587 -0.246232 -0.09512173 -0.8146198 -0.5721419 184 151 100
-0.004787922 0.09613718 0.1642008 -0.02515532 0.5050963 0.8626964 151 121 91
0.03367662 0.07232955 0.1523418 0.1958284 0.4205938 0.8858624 167 143 119
0.1821671 -0.2967996 0.1194572 0.4947984 -0.806161 0.3244673 180 144 97
-0.2514403 0.3273603 0.1940517 -0.5512623 0.7177106 0.4254426 255 138 15
-0.06328034 -0.3448513 -0.1884289 -0.1589817 -0.8663833 -0.4733972 191 153 114
-0.1435044 -0.005808418 0.2308559 -0.5278118 -0.02136347 0.8490925 170 152 128
-0.1112006 -0.04549993 0.2356396 -0.4204133 -0.1720205 0.8908768 162 141 116
-0.01389313 0.1024182 0.1754627 -0.06822361 0.5029349 0.8616275 168 135 118
0.02133083 -0.06377421 0.1763573 0.113015 -0.3378886 0.9343762 135 112 89
0.03854799 -0.08816779 0.1881618 0.1823984 -0.4171855 0.8903298 144 120 101
0.114255 0.18432 0.1124763 0.4676967 0.7545044 0.4604161 159 136 116
0.1291714 0.1049977 0.08302307 0.6944036 0.5644499 0.4463181 172 159 145
0.126658 0.1023941 0.09973907 0.6631881 0.5361414 0.5222393 158 140 118
-0.256305 0.161517 0.2207031 -0.6838087 0.430919 0.5888247 199 183 159
-0.1427029 -0.01736135 0.2259274 -0.5329015 -0.06483321 0.84369 180 159 139
-0.1044879 -0.3159168 0.02127647 -0.3133752 -0.9474831 0.06381141 199 161 117
-0.1295837 -0.04806766 0.2221889 -0.4952211 -0.1836968 0.849124 173 156 132
-0.1263825 0.1592429 0.2191677 -0.4227682 0.5326914 0.7331487 188 156 138
-0.1098282 -0.05295416 0.2279663 -0.4248267 -0.2048321 0.8817971 179 156 134
-0.09576572 -0.0258249 0.2290478 -0.3836746 -0.1034645 0.917654 177 156 136
-0.08218063 -0.04124416 0.2156868 -0.3504974 -0.1759048 0.9198962 176 155 138
-0.0143441 0.1267916 0.2001228 -0.06043654 0.5342159 0.8431849 185 154 133
0.04905509 -0.05429938 0.1770611 0.2560465 -0.2834194 0.9241827 171 152 132
0.110413 0.2218826 0.1300144 0.3945167 0.7928088 0.4645545 182 153 137
0.2798731 0.07401344 0.08162498 0.9304861 0.2460704 0.2713763 150 125 92
0.2798731 0.07401344 0.08162498 0.9304861 0.2460704 0.2713763 150 125 92
-0.1432378 -0.0348613 0.2412834 -0.5065803 -0.1232918 0.853332 186 169 149
-0.1406517 0.1253685 0.2383251 -0.4629632 0.4126576 0.7844609 194 169 153
-0.1186164 -0.1958548 -0.5790558 -0.1904923 -0.3145335 -0.9299362 184 162 143
-0.1301659 -0.06439602 0.2440205 -0.4583874 -0.2267747 0.8593336 184 165 145
-0.1103387 -0.06395831 0.2572975 -0.3842262 -0.2227184 0.8959725 187 167 152
-0.1089951 -0.2703686 0.1858063 -0.3152952 -0.7821079 0.5374905 162 127 95
-0.08272231 -0.05064931 0.2592258 -0.2988754 -0.1829958 0.9365821 187 168 145
0.006441385 0.1105639 0.2035866 0.02779317 0.4770592 0.8784316 196 169 153
0.1098901 0.2572989 0.1568489 0.3426043 0.8021806 0.4890077 255 138 25
0.1602062 0.2665465 0.137989 0.470881 0.7834384 0.40558 204 129 62
-0.1408906 -0.06758667 0.2393246 -0.4929308 -0.236464 0.8373196 190 171 153
-0.1294777 -0.08385266 0.2504234 -0.4402181 -0.285095 0.8514276 178 157 136
-0.1201692 0.249881 0.2265797 -0.3355954 0.6978405 0.6327672 254 152 64
-0.11532 -0.2363166 0.1525974 -0.3793128 -0.7772975 0.5019267 190 169 150
-0.09323001 0.2821489 0.2145462 -0.254372 0.769825 0.5853754 255 136 24
-0.08750081 -0.06264117 0.2299385 -0.3446623 -0.2467411 0.9057189 189 172 156
0.01558518 -0.06663128 0.2464714 0.06092856 -0.2604876 0.9635528 184 167 148
0.06356025 -0.2148888 0.2358837 0.1953544 -0.6604676 0.724996 188 168 147
0.2473569 0.328782 1.216129 0.1926691 0.256092 0.9472568 252 132 32
0.2476983 0.3292059 1.217056 0.192777 0.2562122 0.9472024 252 132 32
0.1113985 -0.006333601 0.1919594 0.5017229 -0.02852564 0.8645579 190 177 161
0.1129072 0.2866694 0.176424 0.3180133 0.8074303 0.4969142 252 133 25
0.1876261 -0.2129031 0.2000637 0.5403778 -0.6131774 0.576199 62 49 39
-0.3574753 0.2258448 -0.4008646 -0.6135282 0.3876133 -0.6879965 204 178 159
-0.145184 0.07822574 0.2352638 -0.5053228 0.2722699 0.8188515 164 133 112
-0.0009841919 0.2707808 0.2408438 -0.002715811 0.7472014 0.6645921 254 128 20
0.00874424 0.2877123 0.2306995 0.02370443 0.7799485 0.6253946 255 129 25
0.02280283 -0.07058457 0.2669439 0.0823034 -0.2547645 0.9634942 188 170 151
0.05215025 -0.2292612 0.2522316 0.1512389 -0.6648713 0.7314869 189 169 148
0.05215025 -0.2292612 0.2522316 0.1512389 -0.6648713 0.7314869 189 169 148
0.1221485 0.002087521 0.2212276 0.4833396 0.008260285 0.875394 183 168 150
0.1805878 0.01042618 0.2200165 0.6340204 0.03660499 0.7724496 53 48 49
-0.267416 -0.164789 0.2244368 -0.6926886 -0.4268535 0.5813593 166 140 97
-0.2499275 -0.3399765 0.2467117 -0.5113201 -0.6955489 0.504741 182 149 109
-0.2588644 0.001140486 0.2238426 -0.756417 0.003332568 0.6540813 195 179 158
-0.4517994 -0.237689 -0.3328428 -0.7413493 -0.3900195 -0.5461556 189 153 116
-0.1538649 0.2236422 0.1507969 -0.4954884 0.7201912 0.4856087 211 183 165
-0.2831984 -0.3579744 0.2449999 -0.5466662 -0.6910086 0.4729306 182 149 109
-0.2561178 -0.2041084 0.2413168 -0.6295836 -0.5017352 0.5932 187 151 116
-0.137125 0.01453074 0.2516747 -0.4778294 0.0506342 0.8769921 197 177 161
-0.1082058 -0.1488582 0.2635603 -0.3366159 -0.4630808 0.8199061 198 177 156
-0.07991791 -0.2288558 0.2224426 -0.2429098 -0.6956054 0.6761125 199 178 156
0.1753311 0.2151089 0.2542181 0.4658719 0.5715653 0.6754824 254 134 32
0.1885395 -0.04660427 0.04171562 0.9491343 -0.2346124 0.2100023 45 46 54
0.08504105 -0.2081895 -0.2202978 0.2701337 -0.6613157 -0.699778 155 128 99
0.08504105 -0.2081895 -0.2202978 0.2701337 -0.6613157 -0.699778 155 128 99
-0.2384987 -0.08139334 0.2487049 -0.6736051 -0.2298837 0.7024311 182 151 122
-0.1240568 -0.2696053 0.1851454 -0.3546566 -0.7707543 0.5292981 182 145 104
0.1830349 0.01131635 0.2720184 0.5579299 0.03449467 0.8291709 123 117 119
0.2181139 -0.1629931 0.2734632 0.5652012 -0.422366 0.7086287 33 53 89
0.1742735 0.3364432 0.2262192 0.3949147 0.7624015 0.5126268 252 114 17
0.1641521 -0.2558524 0.1356974 0.4931025 -0.7685642 0.4076262 54 36 35
0.1757336 -0.04168816 0.03163433 0.9584069 -0.2273568 0.1725257 48 68 86
0.1093912 -0.1962983 -0.200923 0.3628887 -0.6511896 -0.6665313 155 128 94
-0.2407665 -0.3171571 0.1156197 -0.5806661 -0.7649004 0.2788445 190 154 115
-0.1104364 -0.02690305 0.2027731 -0.4750805 -0.1157327 0.8722984 214 190 177
0.1951857 0.1951118 0.267312 0.5080105 0.5078183 0.6957341 219 120 56
0.2249756 -0.1775101 0.2778001 0.5636791 -0.4447539 0.6960315 45 85 121
0.2027102 0.1732449 0.2564697 0.5479015 0.4682604 0.6932072 149 106 91
0.2064514 -0.2566103 0.1603866 0.5635726 -0.7004967 0.4378245 55 54 70
0.1304541 -0.01839009 0.006475925 0.9890153 -0.1394213 0.04909613 21 27 50
0.1470985 -0.1112354 -0.04331064 0.7764958 -0.5871835 -0.2286259 41 57 78
0.08155918 -0.3653113 -0.08106613 0.2129577 -0.9538578 -0.2116703 163 134 100
0.2002907 0.1713317 0.2697835 0.5310415 0.454261 0.7152915 138 144 156
0.2392673 -0.2014719 0.2839279 0.5663948 -0.4769252 0.6721155 124 135 142
0.2135372 0.3094602 0.2410977 0.4780915 0.6928548 0.539797 255 141 26
0.05459404 -0.3534721 0.1492951 0.1408617 -0.9120166 0.3852061 183 151 118
0.2101688 -0.04231215 0.1358409 0.8280912 -0.1667151 0.5352299 37 66 103
0.1393375 0.0002509188 0.009968758 0.9974489 0.001796204 0.07136143 29 61 93
0.08637238 -0.3508469 -0.07917857 0.2335045 -0.9485018 -0.2140563 172 143 108
-0.4660492 -0.3233375 -0.4904549 -0.6215122 -0.4311952 -0.6540591 163 132 94
0.199892 0.1395864 0.2704964 0.5489189 0.3833149 0.7428039 90 116 135
0.204771 -0.0545003 0.1349315 0.8151292 -0.2169486 0.5371199 40 78 115
0.1906204 -0.06541204 0.1019419 0.8440232 -0.2896294 0.4513752 39 87 125
0.1797752 -0.1114635 -0.02838093 0.8423485 -0.5222692 -0.1329807 43 84 120
0.1766796 -0.09487133 -0.03940613 0.8644878 -0.4642025 -0.192813 43 81 118
0.07349205 -0.3366368 -0.0811312 0.2076116 -0.950983 -0.2291918 182 151 115
0.207943 -0.2622065 0.280357 0.4763117 -0.6006071 0.6421824 152 106 84
0.2027683 0.07977836 0.1307862 0.7978763 0.3139211 0.5146328 42 93 135
0.201355 0.2728532 0.1263701 0.5564031 0.7539738 0.3491977 220 132 70
0.220293 -0.2608111 0.1245857 0.6061689 -0.7176604 0.342816 75 66 73
0.2040348 0.101839 0.1052864 0.812336 0.4054576 0.419183 47 94 139
0.3010368 -0.01242745 0.0001214463 0.999149 -0.04124702 0.0004030835 40 96 139
0.07798767 -0.3220772 -0.08100183 0.2286084 -0.9441178 -0.2374439 185 152 121
0.2305031 -0.1875574 0.5506955 0.3683573 -0.2997276 0.8800434 191 154 115
0.1982079 0.06208824 0.2707257 0.5808734 0.1819575 0.7933962 48 110 154
0.1675034 -0.3100858 0.2641342 0.3803189 -0.7040545 0.5997207 189 157 120
0.2077847 0.06150816 0.1302726 0.821799 0.2432679 0.5152349 33 64 104
0.2077847 0.06150816 0.1302726 0.821799 0.2432679 0.5152349 33 64 104
0.2001934 0.07888353 -0.004913807 0.9301351 0.3665073 -0.02283044 91 39 48
0.1933117 0.2775754 -0.01292539 0.5710774 0.8200076 -0.03818391 253 190 83
0.2204304 0.3296604 -0.08263683 0.5441574 0.8138042 -0.2039984 254 220 105
0.098423 -0.3096209 -0.0846405 0.2931592 -0.9222254 -0.2521071 183 146 101
0.1422024 0.2752624 -0.1255047 0.4254005 0.8234515 -0.3754492 240 164 81
0.2251301 -0.3443756 0.246757 0.4692582 -0.7178119 0.5143372 192 158 126
0.1987753 0.1836436 0.243587 0.545931 0.5043722 0.6690052 49 115 156
-1.268832 0.08171023 0.691061 -0.8767938 0.05646375 0.4775399 52 111 150
0.2188663 -0.1349192 0.140728 0.7467188 -0.4603114 0.4801297 61 107 149
0.2137623 0.2157192 0.1325536 0.6451057 0.6510113 0.4000288 55 101 146
-0.7988901 0.1007467 0.4170308 -0.8809972 0.1111011 0.4598918 41 116 162
0.225729 0.2786077 -0.02447844 0.6280556 0.7751824 -0.06810741 255 198 88
0.2025328 -0.09748361 -0.03202963 0.8920463 -0.4293621 -0.141073 30 104 151
0.1063299 -0.299333 -0.0874505 0.3227252 -0.9085146 -0.2654237 134 101 72
0.2133255 -0.02268849 0.2653289 0.6252092 -0.06649489 0.7776194 121 132 140
0.1992159 -0.3186406 0.2473345 0.4428188 -0.7082772 0.5497772 184 152 121
0.2067032 0.140967 0.2410517 0.5949585 0.4057486 0.6938245 33 91 137
0.2230425 0.2016709 0.1040859 0.7009446 0.6337812 0.3271057 51 110 154
0.2359543 0.2727015 -0.03020191 0.6520346 0.7535816 -0.08345978 223 168 134
0.08144665 -0.3517658 -0.02250099 0.2251325 -0.9723409 -0.06219659 184 148 111
0.4343739 -0.2228091 0.4525471 0.6525313 -0.3347115 0.6798317 178 144 105
0.468996 -0.2293569 0.4176388 0.7014928 -0.3430566 0.624676 176 144 102
0.2301321 -0.3551732 0.2249165 0.4801758 -0.7410769 0.4692932 175 144 108
0.2300425 -0.1732836 0.1177387 0.7393495 -0.5569282 0.3784087 66 81 103
0.2298927 -0.3319466 0.116766 0.5469398 -0.789737 0.277799 173 140 107
0.1359663 -0.004931858 0.05676365 0.9222927 -0.033454 0.3850417 43 96 140
0.2340584 0.2610191 -0.02854538 0.6654083 0.7420554 -0.08115212 140 70 81
0.1028929 -0.3568234 -0.01469707 0.276852 -0.9600985 -0.03954516 175 142 100
0.09386921 -0.3498048 -0.03280354 0.2581213 -0.9618922 -0.09020307 174 139 99
0.06077003 -0.3632903 -0.01681328 0.1648129 -0.9852703 -0.04559886 177 141 103
0.2243328 -0.2208927 -0.1662512 0.630093 -0.6204306 -0.4669567 98 106 87
0.1931095 0.3282935 -0.1471987 0.4729223 0.8039859 -0.3604874 244 211 97
0.1558189 -0.2924607 -0.1229801 0.4408337 -0.8274127 -0.3479281 125 90 36
0.2122631 -0.01785552 -0.1884031 0.7464149 -0.06278823 -0.6625122 147 121 46
-0.2227898 -0.2024703 -0.06450558 -0.7236238 -0.657626 -0.2095149 173 140 97
0.2212496 0.3092823 -0.177597 0.527162 0.7369137 -0.4231529 253 221 109
0.2029066 0.3303985 -0.1587276 0.4843085 0.788613 -0.3788598 251 219 108
0.223424 0.1448765 -0.1846704 0.6894664 0.4470759 -0.5698766 143 76 33
0.2207785 0.1666749 -0.1882467 0.6598183 0.4981243 -0.562594 147 76 37
0.2215137 -0.01842703 -0.1992826 0.7420096 -0.06172545 -0.6675416 159 136 57
0.1575985 -0.293738 -0.1250582 0.4426525 -0.8250324 -0.3512553 125 87 41
0.1051426 -0.2232763 -0.1785841 0.3451483 -0.7329422 -0.5862324 86 39 25
0.08595657 -0.08045767 -0.164113 0.4255742 -0.3983489 -0.8125298 181 150 70
0.1950088 -0.1131521 0.06704998 0.8290554 -0.4810521 0.2850546 78 112 146
0.1950088 -0.1131521 0.06704998 0.8290554 -0.4810521 0.2850546 78 112 146
0.2261281 0.1590952 -0.1971455 0.665914 0.468512 -0.5805644 154 91 39
0.2058458 0.3226774 -0.1635866 0.4945392 0.7752239 -0.3930126 255 229 111
0.2285318 -0.02699903 -0.2109795 0.7320074 -0.08648024 -0.6757857 181 152 61
0.1069646 -0.3675997 -0.01935005 0.2790372 -0.9589527 -0.05047824 188 147 106
0.1652079 -0.2999329 -0.1378956 0.4475411 -0.8125054 -0.3735532 112 52 27
0.08389235 -0.3601089 -0.05017281 0.2248279 -0.9650765 -0.134461 196 156 108
0.1279221 -0.217788 -0.2179403 0.3834513 -0.652828 -0.6532845 180 145 56
0.09423685 0.08176768 -0.16292 0.4592307 0.3984665 -0.7939343 162 137 68
0.09036779 -0.07399359 -0.1717024 0.4351698 -0.3563191 -0.8268397 162 117 22
0.07701111 -0.1034009 -0.1831255 0.3438633 -0.4616969 -0.817676 171 137 47
-0.01771355 0.04936396 -0.1309843 -0.1255445 0.3498662 -0.9283492 170 136 43
-0.0723381 -0.1289351 -0.1241903 -0.3746515 -0.667777 -0.643203 147 76 20
-0.1416368 0.1641998 -0.07155704 -0.6202666 0.7190757 -0.3133679 174 146 64
-0.1473818 -0.03546541 -0.070014 -0.88265 -0.2123976 -0.4193045 177 88 14
-0.1389246 -0.2624125 -0.09527016 -0.4455166 -0.8415293 -0.3055214 192 152 108
-0.1458931 -0.3708025 -0.1027794 -0.3545286 -0.9010714 -0.2497598 181 146 107
-0.2579665 -0.1679493 0.01370144 -0.837212 -0.5450677 0.04446705 185 151 109
-0.2269616 -0.02125679 -0.05822659 -0.9646702 -0.09034915 -0.2474844 79 68 37
0.6039176 -0.2441193 0.2070131 0.8835731 -0.3571633 0.3028745 195 162 120
0.622972 -0.2618663 0.1389618 0.9029733 -0.3795648 0.2014196 193 161 116
0.1999207 -0.1378413 0.05599976 0.8022252 -0.5531181 0.2247112 104 118 140
0.2425263 0.1360467 -0.2057667 0.7010847 0.3932781 -0.5948216 160 107 54
0.2336373 0.1208139 -0.1999378 0.7071562 0.3656706 -0.605157 157 105 55
0.2243717 0.2853577 -0.1781864 0.5548554 0.7056696 -0.4406425 254 233 113
0.2287233 -0.04309352 -0.2108669 0.7282695 -0.1372125 -0.6714137 195 166 74
0.1671116 -0.3090937 -0.1426888 0.4406452 -0.815028 -0.3762462 149 101 66
0.1074607 -0.37459 -0.02056313 0.2753699 -0.9598932 -0.05269335 199 159 108
0.1201158 0.09561406 -0.1793461 0.5087876 0.4050031 -0.759676 103 110 47
0.117264 -0.2168109 -0.1890259 0.3775086 -0.6979802 -0.6085318 193 155 59
0.1132388 0.1022714 -0.187048 0.4691103 0.4236761 -0.7748768 118 96 34
0.1133273 -0.06227778 -0.1932182 0.4874353 -0.2678648 -0.8310567 188 153 55
0.09503889 -0.07212396 -0.1844234 0.4326827 -0.3283581 -0.8396229 165 114 33
0.07952905 -0.100601 -0.1899605 0.3469927 -0.4389316 -0.8288155 220 181 67
0.06592441 -0.2703081 -0.1909981 0.1953432 -0.8009602 -0.5659537 197 155 107
0.06742692 -0.07667889 -0.1983738 0.3022134 -0.3436815 -0.8891289 191 151 33
-0.01287293 0.06940006 -0.1436634 -0.08042246 0.4335704 -0.8975238 186 151 53
-0.04242921 -0.1126425 -0.1379814 -0.2317207 -0.6151797 -0.7535645 202 97 14
-0.04829192 0.05380281 -0.1337261 -0.317672 0.3539235 -0.8796719 178 138 37
-0.05833364 -0.2919538 -0.146101 -0.1758943 -0.8803325 -0.4405405 204 161 110
-0.2836471 0.02016118 -0.07941818 -0.9607189 0.06828637 -0.2689911 122 106 68
-0.2836471 0.02016118 -0.07941818 -0.9607189 0.06828637 -0.2689911 122 106 68
-0.4677012 -0.3150434 0.4704056 -0.6368865 -0.4290066 0.6405692 179 148 104
-0.4677012 -0.3150434 0.4704056 -0.6368865 -0.4290066 0.6405692 179 148 104
