ply
format ascii 1.0
comment VCGLIB generated
element vertex 637
property float x
property float y
property float z
property float nx
property float ny
property float nz
property uchar red
property uchar green
property uchar blue
element face 0
property list uchar int vertex_indices
end_header
0.2446423 0.2576534 0.07781792 0.6726153 0.708388 0.2139513 165 141 117
0.2446423 0.2576534 0.07781792 0.6726153 0.708388 0.2139513 165 141 117
0.1599903 0.07749683 0.04604673 0.871226 0.4220084 0.2507471 201 185 169
0.1599903 0.07749683 0.04604673 0.871226 0.4220084 0.2507471 201 185 169
0.152401 0.03196052 0.01900721 0.9714993 0.2037364 0.1211638 203 190 172
-0.03478432 -0.1100981 -0.05279446 -0.273979 -0.8671885 -0.4158361 107 102 100
-0.07618141 -0.1299242 -0.06803799 -0.4609605 -0.7861488 -0.4116861 208 193 175
-0.07618141 -0.1299242 -0.06803799 -0.4609605 -0.7861488 -0.4116861 208 193 175
-0.1231861 -0.1942486 -0.08629608 -0.5014266 -0.7906852 -0.3512665 75 62 59
-0.03175735 -0.1089802 -0.05998039 -0.2473591 -0.8488507 -0.4671893 106 100 94
-0.04084969 -0.120886 -0.06420994 -0.2859697 -0.8462667 -0.449504 209 193 176
0.002595901 -0.07989503 -0.04996014 0.02753822 -0.847554 -0.5299943 92 87 85
-0.109005 -0.1771068 -0.08975935 -0.4812422 -0.7819027 -0.3962754 154 137 113
-0.01557159 -0.08772664 -0.05667782 -0.1474619 -0.8307651 -0.5367349 42 33 41
0.007545471 -0.07194529 -0.05186367 0.08477041 -0.8082772 -0.582668 203 192 180
0.01964378 -0.06246221 -0.04928017 0.239702 -0.7621912 -0.6013381 211 194 174
0.07883453 -0.01012167 -0.0299387 0.928194 -0.119172 -0.3524968 208 190 174
-0.03356934 -0.1103222 -0.07319403 -0.2457775 -0.8077227 -0.5358893 152 144 134
0.06632423 -0.01726753 -0.03856277 0.8433967 -0.2195786 -0.4903746 207 191 174
0.156208 0.07168004 -0.008220196 0.9078403 0.4165857 -0.04777363 183 176 173
0.01902199 -0.06250748 -0.05993509 0.2145411 -0.7049959 -0.675983 207 190 177
0.03253746 -0.05411297 -0.05890846 0.3767892 -0.6266373 -0.6821699 209 191 174
-0.08574867 -0.1611005 -0.104547 -0.4076975 -0.7659627 -0.4970754 174 149 124
0.234436 0.23497 0.006429195 0.7061695 0.7077779 0.01936606 132 126 117
0.234436 0.23497 0.006429195 0.7061695 0.7077779 0.01936606 132 126 117
0.00793457 -0.06845247 -0.07644844 0.0770926 -0.6650869 -0.742776 100 100 103
0.06452179 -0.01810366 -0.05698013 0.7335082 -0.2058093 -0.6477718 206 191 174
0.08205223 -0.01265044 -0.05476379 0.8250029 -0.1271951 -0.5506284 205 191 172
-0.1198101 -0.1911681 -0.1266088 -0.4631104 -0.7389356 -0.4893901 77 43 43
-0.1198101 -0.1911681 -0.1266088 -0.4631104 -0.7389356 -0.4893901 77 43 43
-0.04024887 -0.1260265 -0.1001911 -0.2425296 -0.7594036 -0.6037264 210 192 174
0.1547451 0.0729159 -0.03223181 0.8889629 0.4188794 -0.1851618 197 186 169
-0.02620316 -0.1063178 -0.09692574 -0.1791852 -0.7270338 -0.6628081 172 163 151
0.2339916 0.2351705 -0.009268761 0.7050527 0.7086048 -0.0279282 153 139 130
0.2339916 0.2351705 -0.009268761 0.7050527 0.7086048 -0.0279282 153 139 130
-0.1243019 -0.1972562 -0.1371889 -0.4594903 -0.7291707 -0.5071279 32 24 20
-0.09127617 -0.1638509 -0.1258922 -0.4040696 -0.7253499 -0.5573108 165 142 110
0.02015495 -0.03439014 -0.08985901 0.2050282 -0.349837 -0.9140993 201 191 173
0.01158714 -0.0750808 -0.09325075 0.09633537 -0.6242208 -0.7752856 71 62 63
0.02055168 -0.06030347 -0.09106016 0.1849265 -0.542618 -0.8193704 94 72 78
0.01262665 -0.06683697 -0.09608316 0.1072577 -0.5677502 -0.8161836 164 160 160
-0.1121407 -0.1846239 -0.1416306 -0.4341428 -0.7147555 -0.5483108 43 29 26
0.1313953 0.04709863 -0.05920124 0.8666251 0.3106416 -0.390465 187 173 165
-0.1216335 -0.193596 -0.1480737 -0.4465309 -0.7107135 -0.5435958 45 23 23
0.1460743 0.05551425 -0.05597496 0.8800179 0.334443 -0.3372186 198 188 170
-0.04263878 -0.1173962 -0.1241803 -0.2420912 -0.6665434 -0.7050616 211 192 173
0.1492634 0.0699072 -0.05770397 0.8547311 0.4003116 -0.3304319 161 156 147
-0.094244 -0.172536 -0.1461344 -0.3847308 -0.7043409 -0.596562 100 80 69
-0.094244 -0.172536 -0.1461344 -0.3847308 -0.7043409 -0.596562 100 80 69
0.03113174 -0.0405651 -0.1026583 0.2714463 -0.3536983 -0.8951058 122 98 92
0.2276382 0.2318523 -0.03721714 0.6960413 0.7089264 -0.1137975 89 85 85
0.1515484 0.07257487 -0.0638299 0.8431297 0.4037656 -0.3551135 164 154 152
-0.1212749 -0.1897572 -0.1588273 -0.4400799 -0.6885867 -0.576349 78 72 67
0.03439713 -0.03783803 -0.1073217 0.2893394 -0.3182833 -0.9027616 95 78 85
0.2268562 0.2281383 -0.04358101 0.6987302 0.7026791 -0.134232 69 62 66
-0.1528835 -0.2101233 -0.1754971 -0.4875623 -0.6701061 -0.5596793 134 121 110
0.06440353 -0.02260062 -0.1017361 0.5256979 -0.184479 -0.8304271 125 116 121
0.06440353 -0.02260062 -0.1017361 0.5256979 -0.184479 -0.8304271 125 116 121
0.03281975 -0.03618343 -0.1138854 0.2648454 -0.2919893 -0.9190208 77 70 77
-0.06068039 -0.1310299 -0.1473093 -0.2941667 -0.6352077 -0.7141268 205 186 165
-0.09542847 -0.1686681 -0.1595583 -0.3801528 -0.6719131 -0.635623 98 78 60
-0.08642769 -0.1566205 -0.1566973 -0.3634312 -0.6585941 -0.658917 170 147 126
0.1217575 0.04137171 -0.08509016 0.7896209 0.2683035 -0.5518261 200 188 174
-0.1659012 -0.232514 -0.1869655 -0.4859685 -0.6810952 -0.5476714 51 32 34
-0.03399086 -0.1187357 -0.1418829 -0.1806995 -0.6312129 -0.7542664 206 190 171
0.1487789 0.06632871 -0.08616972 0.8073434 0.3599303 -0.4675969 160 150 142
0.2224846 0.2438371 -0.06173134 0.662536 0.7261217 -0.1838295 188 179 165
-0.0603466 -0.1281563 -0.1593013 -0.2830877 -0.601185 -0.747287 202 186 165
0.09553146 0.01238116 -0.1061072 0.6665983 0.08639311 -0.7403938 205 185 174
0.03716469 -0.03851671 -0.1289167 0.2662492 -0.2759351 -0.9235644 78 54 61
0.08612633 0.01985584 -0.1130395 0.6002173 0.138376 -0.7877762 202 188 177
0.07082939 -0.01012431 -0.1190548 0.509929 -0.07288892 -0.8571228 86 90 86
0.1360283 0.05557281 -0.09700871 0.7725549 0.3156185 -0.5509483 174 160 151
0.218586 0.2409296 -0.06881571 0.6573828 0.7245799 -0.2069587 193 179 163
-0.02865791 -0.1042866 -0.1543508 -0.1520552 -0.5533311 -0.8189651 205 192 174
0.2261276 0.2271777 -0.06777668 0.6902059 0.6934112 -0.2068737 130 124 120
0.04583168 -0.02439239 -0.1322227 0.3226434 -0.1717163 -0.930814 82 69 71
0.0530529 -0.02443455 -0.1304474 0.3711883 -0.170958 -0.9126842 82 69 71
-0.04547882 -0.1186149 -0.1645026 -0.2188128 -0.5706932 -0.7914735 208 191 170
0.06837654 -0.005340791 -0.1259789 0.4766963 -0.03723404 -0.8782792 126 128 122
0.06796074 -0.01671305 -0.1297936 0.4608766 -0.1133397 -0.8801971 140 134 130
0.0700016 -0.01661158 -0.1292796 0.4731417 -0.1122778 -0.8738024 140 134 130
0.1235046 0.04181446 -0.1183624 0.7013291 0.2374461 -0.6721287 66 60 51
-0.001724243 -0.08239952 -0.1612453 -0.009521598 -0.4550258 -0.8904274 101 96 99
0.09583473 0.02414989 -0.1389742 0.5619734 0.1416146 -0.8149425 67 66 67
0.1145515 0.03537375 -0.1331878 0.6392415 0.1973991 -0.7432388 141 133 132
0.0349369 -0.04234646 -0.1620874 0.2041519 -0.2474491 -0.9471489 167 155 149
0.01442909 -0.05413522 -0.1708956 0.08023084 -0.3010109 -0.9502397 113 108 110
0.07281303 -0.004800339 -0.1520777 0.4316678 -0.02845853 -0.9015836 85 76 77
0.2296677 0.2489938 -0.09960365 0.6504678 0.7052035 -0.2820988 155 132 100
0.04597282 -0.02366672 -0.1620789 0.2702266 -0.1391121 -0.9526937 63 51 50
0.08883858 0.01193529 -0.1556406 0.4946271 0.06645221 -0.8665611 85 81 83
0.05033302 -0.02881049 -0.1712599 0.2783703 -0.1593384 -0.9471648 160 144 142
0.0569706 -0.01547452 -0.1697397 0.3170092 -0.08610693 -0.9445056 84 65 77
0.07241058 -0.003351175 -0.168056 0.395637 -0.01831015 -0.9182245 113 107 110
0.0786705 0.006716233 -0.1731658 0.4133657 0.03528972 -0.909881 144 136 135
0.1026154 0.02384481 -0.166162 0.5215672 0.121197 -0.8445584 96 85 90
0.1026154 0.02384481 -0.166162 0.5215672 0.121197 -0.8445584 96 85 90
0.1217041 0.04809462 -0.1649914 0.5779263 0.2283829 -0.783481 85 72 83
0.1394157 0.2538652 -0.1609159 0.4207787 0.7662053 -0.4856694 155 131 100
0.1865768 0.2324849 -0.1473455 0.5610963 0.6991565 -0.4431152 154 131 100
0.1865768 0.2324849 -0.1473455 0.5610963 0.6991565 -0.4431152 154 131 100
0.1054497 0.03310102 -0.1746597 0.5101793 0.1601471 -0.8450266 73 70 86
0.1292381 0.05352512 -0.1749849 0.5768918 0.2389249 -0.7810959 188 178 164
0.2015877 0.2426082 -0.152113 0.5756484 0.6927856 -0.4343697 157 128 96
0.1995564 0.1905867 -0.1746502 0.6110655 0.5835993 -0.5347998 153 129 100
0.2004414 0.2025417 -0.1744318 0.5999347 0.6062213 -0.5220863 155 133 101
0.1936378 0.1831318 -0.1923938 0.5890896 0.557128 -0.5853049 157 134 100
0.144413 0.08130428 -0.2097039 0.5402961 0.3041858 -0.7845707 158 133 99
0.1698132 0.2547121 -0.2200248 0.4504381 0.6756368 -0.583627 153 128 99
-0.4543419 -0.3388087 -0.4853938 -0.6088684 -0.4540412 -0.6504813 171 143 103
-0.2038517 -0.3224542 0.3750412 -0.3810558 -0.6027569 0.7010568 177 145 106
-0.2565689 -0.2024828 0.3001187 -0.5782069 -0.4563177 0.6763512 196 173 149
0.1415062 0.3640006 0.4241951 0.2454169 0.6312933 0.7356897 152 129 94
0.09169579 0.1482877 0.3985386 0.2107919 0.3408865 0.9161677 119 105 103
-0.2323589 -0.1917508 0.2942839 -0.5517331 -0.4553097 0.698773 207 185 160
0.1863537 0.3911895 0.4166696 0.31 0.650745 0.6931313 155 128 95
0.155014 0.328351 0.4009745 0.2865602 0.6069922 0.7412447 157 130 92
0.09353065 0.1260569 0.3767185 0.229179 0.3088785 0.9230769 102 96 101
-0.130722 -0.1030111 0.2949755 -0.3859651 -0.3041468 0.8709338 130 123 117
0.1599312 0.3065217 0.3862722 0.3085085 0.5912828 0.7451222 155 129 96
-0.201437 -0.1708979 0.2715786 -0.531687 -0.4510798 0.7168235 215 197 179
-0.1549149 -0.1319861 0.2854688 -0.4418725 -0.3764715 0.8142591 95 82 89
-0.1001072 -0.0766591 0.3022411 -0.3056829 -0.2340829 0.9229101 145 137 135
-0.06471825 -0.04610174 0.3110805 -0.2015716 -0.1435886 0.9688918 188 177 167
-0.1340389 -0.1158862 0.2862833 -0.3981183 -0.3442018 0.8503098 118 104 97
0.02288628 0.03772775 0.3349819 0.06773577 0.1116616 0.9914351 125 117 109
0.1566105 0.2753801 0.3751674 0.318942 0.56082 0.7640398 161 130 97
-0.00141716 0.01891161 0.3233323 -0.004375463 0.05838934 0.9982843 161 154 150
0.08494568 0.1006142 0.3501334 0.2270817 0.2689678 0.9359969 137 122 127
0.08494568 0.1006142 0.3501334 0.2270817 0.2689678 0.9359969 137 122 127
-0.1014862 -0.09226029 0.2882285 -0.3179417 -0.2890382 0.9029784 183 175 169
0.05016136 0.05770344 0.3318655 0.1472912 0.1694373 0.9744723 66 58 60
0.05016136 0.05770344 0.3318655 0.1472912 0.1694373 0.9744723 66 58 60
-0.1050053 -0.09887534 0.2832196 -0.3303821 -0.3110953 0.8911046 172 148 137
-0.1694794 -0.1521491 0.2626157 -0.4875422 -0.4376881 0.755468 136 124 118
-0.07410431 -0.06480969 0.2902813 -0.2417595 -0.2114365 0.94702 172 167 162
-0.1702576 -0.1643308 0.2598588 -0.4844398 -0.4675761 0.7393854 214 196 177
-0.04834557 -0.03253137 0.2961829 -0.1601585 -0.1077695 0.9811906 145 134 134
-0.04834557 -0.03253137 0.2961829 -0.1601585 -0.1077695 0.9811906 145 134 134
-0.09346199 -0.08521871 0.2773209 -0.3066318 -0.2795871 0.9098395 193 177 166
-0.1208992 -0.1064047 0.2685635 -0.3860705 -0.3397848 0.8576106 128 124 122
0.0667305 0.07081459 0.3267696 0.19572 0.2076987 0.9584127 118 113 105
0.0667305 0.07081459 0.3267696 0.19572 0.2076987 0.9584127 118 113 105
0.04987526 0.05204605 0.3207946 0.1516915 0.1582938 0.9756704 120 107 104
-0.1439571 -0.1221056 0.2569294 -0.4515312 -0.3829922 0.8058763 128 116 110
-0.1827278 -0.1749735 0.2432137 -0.5206828 -0.498587 0.6930371 218 200 177
-0.05422783 -0.04969408 0.2809215 -0.1867406 -0.1711281 0.9673899 131 102 105
0.1877861 0.3052009 0.3529925 0.3733279 0.6067541 0.7017663 157 131 92
-0.1550121 -0.1546459 0.2434742 -0.4733911 -0.4722725 0.7435452 159 149 142
0.009542465 0.02046157 0.2938771 0.03237553 0.06942172 0.9970618 197 186 173
0.01466942 -0.004964995 0.2947161 0.04970616 -0.01682349 0.9986222 103 97 100
-0.1095619 -0.107232 0.2540572 -0.3692334 -0.3613814 0.8561953 158 152 144
-0.08206558 -0.07916626 0.26141 -0.2877507 -0.2775846 0.916595 132 119 120
0.0973835 0.1002435 0.3158422 0.281959 0.2902397 0.9144726 89 64 62
-0.06743431 -0.05983187 0.2625782 -0.2428988 -0.2155148 0.9458084 162 149 142
-0.1171227 -0.1117693 0.2443256 -0.3996054 -0.3813407 0.8336035 116 107 102
-0.1616535 -0.1639106 0.223999 -0.5032686 -0.5102953 0.697366 217 197 176
0.1911831 0.2781983 0.3322487 0.4036468 0.5873628 0.70148 158 134 98
0.1001091 0.08990817 0.3009627 0.3036624 0.2727198 0.9129146 147 136 132
0.1054897 0.07344493 0.3007243 0.3225559 0.2245725 0.9195243 190 181 179
-0.04084587 -0.05239537 0.2513621 -0.1571035 -0.2015258 0.9668019 210 193 175
-0.1693134 -0.1779185 0.210315 -0.5236248 -0.5502371 0.6504277 215 193 171
-0.0303669 -0.04291735 0.2525613 -0.1177124 -0.1663622 0.9790134 209 193 176
0.01774025 -0.0009911144 0.2653673 0.06670234 -0.003726534 0.997766 163 147 144
-0.1530743 -0.164845 0.2120326 -0.4951723 -0.533249 0.6858935 214 196 174
-0.1530743 -0.164845 0.2120326 -0.4951723 -0.533249 0.6858935 214 196 174
0.100914 0.08217436 0.2893574 0.3180639 0.2589997 0.9120057 132 122 112
-0.009283066 -0.02247828 0.2546241 -0.03629275 -0.08788031 0.9954697 181 169 155
-0.04156494 -0.0376999 0.2441545 -0.1659146 -0.1504865 0.9745902 207 190 177
-0.04934883 -0.06489548 0.2404251 -0.1943847 -0.2556229 0.947033 120 104 95
-0.04934883 -0.06489548 0.2404251 -0.1943847 -0.2556229 0.947033 120 104 95
0.08777046 0.07208588 0.2813952 0.2892397 0.2375526 0.9273129 149 143 146
-0.06990623 -0.08202814 0.2327814 -0.2725173 -0.3197725 0.9074579 164 141 140
-0.02462006 -0.05392002 0.2451854 -0.09760233 -0.2137574 0.9719988 165 155 146
-0.002765656 -0.01919773 0.2449851 -0.01125386 -0.07811841 0.9968806 121 115 115
-0.05164909 -0.07311114 0.2284091 -0.2105347 -0.2980194 0.9310529 76 71 69
-0.05164909 -0.07311114 0.2284091 -0.2105347 -0.2980194 0.9310529 76 71 69
0.1231499 0.08428684 0.2808018 0.3872718 0.2650585 0.8830428 127 127 123
-0.09509468 -0.1101116 0.2145154 -0.3668782 -0.424814 0.8276071 116 108 99
-0.09509468 -0.1101116 0.2145154 -0.3668782 -0.424814 0.8276071 116 108 99
-0.1075764 -0.1262605 0.2107246 -0.4011385 -0.4708092 0.785765 73 67 71
-0.01869583 -0.04072653 0.2373526 -0.07740072 -0.1686078 0.9826396 166 159 151
0.1247215 0.1011929 0.2808063 0.3855465 0.3128133 0.8680449 113 109 102
-0.05916023 -0.09196609 0.2246344 -0.2367957 -0.368105 0.8991254 95 92 95
-0.1108303 -0.1341728 0.2070248 -0.4097947 -0.4961036 0.7654735 125 110 107
0.06674957 0.05318429 0.2593803 0.2444494 0.1947708 0.9498994 181 173 166
-0.009944916 -0.03608871 0.2332699 -0.04209409 -0.1527536 0.9873674 109 106 105
0.03824234 0.0206907 0.2443061 0.1541128 0.08338144 0.9845287 171 160 153
-0.1005478 -0.1187456 0.2024634 -0.3937701 -0.4650373 0.7928969 100 97 106
0.08754921 0.06058474 0.2573562 0.314349 0.217532 0.9240479 199 187 178
0.05506325 0.0294258 0.2446489 0.2180814 0.1165427 0.9689471 205 192 174
0.05506325 0.0294258 0.2446489 0.2180814 0.1165427 0.9689471 205 192 174
0.109314 0.08156505 0.2592566 0.3731561 0.2784319 0.8850029 202 187 170
0.1296253 0.09407805 0.26384 0.4199749 0.3048048 0.8548188 199 186 171
-0.1480598 -0.1689718 0.1801593 -0.5141383 -0.5867552 0.6256039 217 198 176
0.0843544 0.05545231 0.2487447 0.3142294 0.206566 0.9266015 205 190 170
0.06820679 0.03656599 0.2378497 0.2726925 0.1461918 0.9509294 206 189 176
0.09072685 0.05170663 0.2333055 0.3549428 0.2022873 0.9127406 200 187 172
0.133894 0.08871496 0.2382784 0.4659486 0.3087264 0.8292044 55 52 55
-0.1449585 -0.1815592 0.1345751 -0.5399017 -0.676222 0.5012286 211 193 165
-0.1449585 -0.1815592 0.1345751 -0.5399017 -0.676222 0.5012286 211 193 165
-0.07146263 -0.1092533 0.1547663 -0.3529468 -0.5395913 0.7643754 53 44 48
0.1085281 0.06156646 0.2043135 0.4533322 0.2571689 0.8534367 41 37 46
0.1544933 0.1092452 0.2140684 0.5407421 0.3823693 0.7492608 35 33 46
0.01705742 -0.02607852 0.1678109 0.0999382 -0.1527922 0.9831921 26 15 17
0.1192532 0.0688201 0.1955049 0.498711 0.2878024 0.8175923 44 38 49
-0.1192188 -0.1600054 0.1244006 -0.5070142 -0.6804715 0.5290512 214 197 178
0.05524254 0.007714903 0.1641665 0.3186145 0.04449614 0.9468395 48 40 46
0.1616344 0.1042856 0.1947281 0.5905197 0.3809999 0.7114251 44 36 47
0.1534863 0.09558232 0.1873651 0.5894619 0.3670826 0.7195729 88 86 88
-0.09973907 -0.1185164 0.1191921 -0.5103043 -0.6063765 0.6098337 48 39 51
0.09544182 0.04271635 0.1694937 0.4792386 0.2144901 0.8510725 74 65 67
0.09544182 0.04271635 0.1694937 0.4792386 0.2144901 0.8510725 74 65 67
0.1676884 0.1111904 0.1900446 0.605884 0.4017482 0.6866607 35 31 40
0.1676884 0.1111904 0.1900446 0.605884 0.4017482 0.6866607 35 31 40
0.1676884 0.1111904 0.1900446 0.605884 0.4017482 0.6866607 35 31 40
0.2365494 0.2690117 0.2061403 0.5723433 0.6508876 0.4987669 158 133 98
0.1626129 0.102769 0.1825557 0.613171 0.3875152 0.68837 43 36 53
0.1626129 0.102769 0.1825557 0.613171 0.3875152 0.68837 43 36 53
0.08177185 0.02419881 0.1588895 0.4534624 0.1341935 0.8811152 41 39 58
0.0933876 0.07727179 0.1619425 0.461673 0.3820025 0.8005823 39 36 43
0.0960083 0.05607739 0.1601186 0.4925107 0.2876701 0.8213885 31 23 31
0.1193943 0.05629283 0.1647055 0.5656542 0.2666984 0.7803251 31 25 33
0.04849052 -0.01866551 0.1376357 0.3296059 -0.1268755 0.9355547 199 188 174
0.05551147 -0.004828676 0.139626 0.3692546 -0.03211968 0.928773 121 116 111
0.05551147 -0.004828676 0.139626 0.3692546 -0.03211968 0.928773 121 116 111
-0.06409454 -0.1043754 0.1038265 -0.3991722 -0.6500363 0.6466177 44 38 47
0.06574631 0.009735874 0.1386273 0.427656 0.06332835 0.9017205 87 81 79
0.06361389 0.009889477 0.138021 0.4176968 0.06493554 0.9062631 87 81 79
-0.1018982 -0.1561299 0.08983231 -0.4923732 -0.7544212 0.4340707 214 197 179
-0.1018982 -0.1561299 0.08983231 -0.4923732 -0.7544212 0.4340707 214 197 179
0.07779503 0.01696225 0.1384227 0.4871653 0.1062204 0.8668259 58 37 51
0.07779503 0.01696225 0.1384227 0.4871653 0.1062204 0.8668259 58 37 51
-0.08247566 -0.1368271 0.09209752 -0.4472487 -0.7419853 0.4994261 210 196 180
-0.0136795 -0.0585944 0.09867978 -0.118358 -0.5069711 0.8537983 49 44 53
0.2379761 0.2654931 0.1620929 0.6076173 0.6778756 0.4138671 158 134 105
0.08328438 0.01806771 0.1176734 0.5732208 0.1243545 0.8099099 46 42 49
0.08328438 0.01806771 0.1176734 0.5732208 0.1243545 0.8099099 46 42 49
0.00497818 -0.07996954 0.09197211 0.04081191 -0.655603 0.754002 47 39 44
-0.128418 -0.1864324 0.0515008 -0.5531327 -0.8030171 0.2218286 178 156 125
-0.06719971 -0.1234166 0.06848001 -0.4298766 -0.7894958 0.4380667 67 61 66
0.03278923 -0.02436955 0.09211946 0.3253803 -0.2418285 0.9141371 40 37 48
0.03278923 -0.02436955 0.09211946 0.3253803 -0.2418285 0.9141371 40 37 48
0.2421856 0.2718018 0.1455839 0.6176984 0.6932349 0.371314 160 132 101
0.125515 0.05149458 0.1128607 0.7112359 0.2917962 0.6395298 60 47 44
-0.05476189 -0.1165725 0.05835104 -0.3872942 -0.8244393 0.4126779 107 104 108
-0.05476189 -0.1165725 0.05835104 -0.3872942 -0.8244393 0.4126779 107 104 108
0.1095886 0.03924359 0.1034849 0.7036074 0.2519612 0.6644186 48 43 51
0.1095886 0.03924359 0.1034849 0.7036074 0.2519612 0.6644186 48 43 51
0.1095886 0.03924359 0.1034849 0.7036074 0.2519612 0.6644186 48 43 51
0.242979 0.2643372 0.1386836 0.6312825 0.6867728 0.360313 161 133 103
0.1581154 0.08948004 0.1126745 0.7396108 0.4185576 0.5270534 99 96 97
0.2469769 0.2565066 0.1335142 0.6494462 0.6745056 0.3510866 159 135 103
0.2427826 0.2595746 0.1203578 0.6469986 0.6917481 0.320745 162 135 103
-0.03760147 -0.1140853 0.02810812 -0.3047939 -0.9247642 0.2278417 59 58 56
0.03287888 -0.04527658 0.04595304 0.4540887 -0.6253128 0.6346553 66 58 61
0.03287888 -0.04527658 0.04595304 0.4540887 -0.6253128 0.6346553 66 58 61
0.0412941 -0.03103286 0.04058599 0.6285998 -0.472398 0.6178207 134 121 114
-0.01709366 -0.09564345 0.02345872 -0.1710206 -0.9569047 0.2347025 75 66 71
-0.01709366 -0.09564345 0.02345872 -0.1710206 -0.9569047 0.2347025 75 66 71
0.2462063 0.2691035 0.08848834 0.6559919 0.7169993 0.2357683 157 132 101
0.2444 0.2547331 0.08434439 0.6733669 0.7018366 0.2323843 158 133 104
0.2444 0.2547331 0.08434439 0.6733669 0.7018366 0.2323843 158 133 104
-0.01901245 -0.1452461 0.009957314 -0.1294921 -0.9892585 0.06781839 217 199 178
0.24613 0.261796 0.07822037 0.6692973 0.7118977 0.2127034 157 134 106
0.24613 0.261796 0.07822037 0.6692973 0.7118977 0.2127034 157 134 106
0.1398945 0.08016531 0.04068828 0.8412665 0.4820804 0.2446821 204 190 174
0.2497234 0.2626927 0.06642127 0.6777036 0.7128997 0.1802551 159 135 104
0.05457306 -0.03038545 0.01199508 0.8580228 -0.477734 0.1885921 212 196 179
0.05457306 -0.03038545 0.01199508 0.8580228 -0.477734 0.1885921 212 196 179
-0.09408188 -0.1830099 -0.04453921 -0.4468565 -0.8692339 -0.2115459 168 146 120
-0.02512169 -0.09977461 -0.03944755 -0.227982 -0.9054651 -0.3579906 60 52 60
-0.04446983 -0.1184741 -0.0510745 -0.3258735 -0.8681744 -0.3742723 125 120 109
-0.04384422 -0.1206856 -0.05943918 -0.3098679 -0.8529422 -0.4200849 189 175 167
-0.04384422 -0.1206856 -0.05943918 -0.3098679 -0.8529422 -0.4200849 189 175 167
0.1479988 0.08009514 -0.0102725 0.8778343 0.4750732 -0.06092992 145 138 143
0.09281349 -0.001714074 -0.02620173 0.9622338 -0.01777047 -0.2716435 114 107 97
0.006401062 -0.07103011 -0.04884505 0.07405102 -0.8217155 -0.5650665 213 196 179
0.08943176 -0.01469444 -0.02874112 0.9406047 -0.1545498 -0.3022867 212 193 176
0.009748459 -0.06285684 -0.0511508 0.1194318 -0.7700813 -0.6266664 213 196 178
-0.1162338 -0.1848556 -0.08433962 -0.4965486 -0.7896996 -0.3602972 166 144 122
0.01543808 -0.05323428 -0.05021644 0.2064122 -0.7117599 -0.6714103 212 195 177
0.2458954 0.2454301 0.009577513 0.7075073 0.7061686 0.02755708 176 154 134
0.2458954 0.2454301 0.009577513 0.7075073 0.7061686 0.02755708 176 154 134
0.07217789 -0.008108005 -0.03691554 0.885892 -0.09951548 -0.4530914 211 189 176
0.05788803 -0.02081266 -0.04545999 0.7568 -0.2720946 -0.5943218 210 195 176
0.2426472 0.2485583 0.0009996891 0.6985441 0.7155612 0.002877952 175 156 131
-0.1169701 -0.1782047 -0.09401751 -0.5020674 -0.7649031 -0.4035488 168 145 120
-0.0271759 -0.1010725 -0.07140923 -0.2144863 -0.7977169 -0.5635987 78 75 78
0.01642609 -0.05245961 -0.06046033 0.2010177 -0.6419856 -0.7398961 211 196 179
0.02770233 -0.04390091 -0.05998397 0.3492166 -0.5534165 -0.75616 210 194 177
0.02770233 -0.04390091 -0.05998397 0.3492166 -0.5534165 -0.75616 210 194 177
0.06884003 -0.01569227 -0.05264449 0.7816354 -0.1781759 -0.5977452 211 194 174
0.1865845 0.08471398 -0.02382326 0.9044531 0.4106441 -0.1154813 205 189 168
0.07043648 -0.007726794 -0.05529165 0.7836844 -0.0859692 -0.6151813 205 194 173
0.0600872 -0.001676129 -0.06023788 0.7060838 -0.01969617 -0.7078544 168 157 145
-0.08657265 -0.1498725 -0.1045692 -0.4281198 -0.7411505 -0.5171164 210 191 167
-0.02443886 -0.09844126 -0.08989263 -0.1803195 -0.7263381 -0.663263 75 64 70
-0.1071968 -0.1715048 -0.1114533 -0.4642039 -0.7426824 -0.4826362 173 153 129
-0.03859711 -0.114196 -0.09952855 -0.2469085 -0.7305205 -0.6366915 116 105 95
0.1461926 0.0597134 -0.05514336 0.8739995 0.3569914 -0.3296698 197 191 178
0.1341763 0.06776591 -0.05875397 0.8313665 0.4198829 -0.3640442 66 64 66
0.2434959 0.2467383 -0.03286624 0.699279 0.7085903 -0.09438625 178 154 124
-0.1158257 -0.1791384 -0.125334 -0.468141 -0.7240368 -0.5065716 166 143 121
-0.1158257 -0.1791384 -0.125334 -0.468141 -0.7240368 -0.5065716 166 143 121
0.004451752 -0.07220297 -0.09767199 0.03662672 -0.5940488 -0.8035947 96 91 92
0.01405525 -0.05435282 -0.09546137 0.1269144 -0.4907886 -0.8619856 130 120 112
-0.07374573 -0.1372083 -0.119276 -0.3758853 -0.6993572 -0.6079555 214 196 173
-0.08141136 -0.1517347 -0.1231413 -0.3845682 -0.716759 -0.5816905 208 188 162
-0.1233444 -0.1845434 -0.1366818 -0.4731712 -0.7079413 -0.5243357 100 82 74
-0.002508163 -0.07530336 -0.1071827 -0.01914404 -0.5747674 -0.8180928 102 96 107
0.2375965 0.2520159 -0.04875636 0.6792873 0.7205123 -0.1393942 175 153 127
0.1141987 0.0432414 -0.08224535 0.7756699 0.2937079 -0.5586338 188 178 172
-0.1088371 -0.171224 -0.1404676 -0.4410508 -0.6938668 -0.5692301 176 154 121
-0.03481865 -0.1042774 -0.1219273 -0.2120867 -0.6351724 -0.7426811 89 83 87
-0.08782387 -0.1412323 -0.1362205 -0.4085246 -0.6569612 -0.6336479 212 193 171
0.1155014 0.05496326 -0.08636403 0.7483656 0.3561222 -0.5595765 187 177 165
0.2361641 0.2449096 -0.0568459 0.6846468 0.7100002 -0.164798 196 179 159
-0.1173115 -0.1801854 -0.1466711 -0.4507276 -0.6922984 -0.5635314 118 95 78
0.2300873 0.2603676 -0.05939436 0.6527223 0.738623 -0.1684927 170 145 121
0.04325294 -0.008949954 -0.1067195 0.3744883 -0.0774896 -0.923988 207 192 175
0.04325294 -0.008949954 -0.1067195 0.3744883 -0.0774896 -0.923988 207 192 175
0.1479301 0.08123371 -0.08600855 0.7809661 0.4288563 -0.454064 147 139 131
0.2324505 0.2437614 -0.06577134 0.6773249 0.7102832 -0.1916475 191 171 151
-0.1218052 -0.1603675 -0.1549528 -0.4793675 -0.6311304 -0.6098206 185 163 133
0.146492 0.07098818 -0.09399962 0.7793103 0.3776439 -0.5000606 151 148 146
-0.04911995 -0.1166005 -0.1440499 -0.2561988 -0.6081626 -0.7513325 203 192 180
-0.09081841 -0.1541147 -0.1580603 -0.3804553 -0.6456152 -0.6621442 201 180 150
-0.140028 -0.1950253 -0.1718988 -0.4742167 -0.6604695 -0.58215 51 39 36
0.04983711 -0.0233079 -0.125361 0.3640329 -0.1702515 -0.9156935 92 76 81
0.07440186 0.009746911 -0.1241329 0.5129381 0.06719673 -0.8557915 145 137 131
0.05862427 -0.0007943753 -0.1316791 0.4067129 -0.005511075 -0.9135394 95 92 93
-0.05898476 -0.1247603 -0.1620038 -0.2771665 -0.5862426 -0.7612478 213 195 174
0.1292858 0.05859605 -0.116502 0.7040449 0.3190934 -0.634429 40 39 44
-0.04013824 -0.1025064 -0.16275 -0.2042819 -0.5217019 -0.8283092 120 112 111
0.03764153 -0.03071507 -0.1470735 0.243021 -0.1983025 -0.9495351 147 140 146
0.03863144 -0.03028123 -0.1468899 0.2494377 -0.1955216 -0.9484472 147 140 146
0.04646492 -0.01852668 -0.148242 0.2969874 -0.118416 -0.9475105 110 100 103
0.1231422 0.05312763 -0.1305983 0.6578239 0.283807 -0.6976541 56 44 54
0.1057358 0.02856705 -0.1367292 0.6035543 0.1630646 -0.7804692 173 165 166
0.07564735 0.01303757 -0.1508801 0.4468647 0.07701564 -0.8912802 121 109 104
0.03970718 -0.02473491 -0.1604223 0.2376194 -0.1480209 -0.960014 141 132 128
0.1128979 0.03002274 -0.1492562 0.5956472 0.1583995 -0.7874732 127 118 114
0.03198051 -0.02977216 -0.1695137 0.1826891 -0.1700738 -0.968349 59 51 63
0.1167507 0.05155242 -0.1507144 0.5911659 0.2610351 -0.7631406 127 119 119
0.08483505 0.0192829 -0.1592667 0.4674643 0.106254 -0.8776031 129 128 129
0.08234596 0.01588642 -0.165087 0.444711 0.08579493 -0.8915555 120 121 122
0.1018543 0.04411813 -0.1656969 0.5107026 0.2212105 -0.8308122 46 39 48
0.1018543 0.04411813 -0.1656969 0.5107026 0.2212105 -0.8308122 46 39 48
0.08832932 0.02654373 -0.170233 0.4562163 0.137097 -0.8792446 105 88 91
0.2152824 0.255954 -0.1396499 0.5939847 0.7062014 -0.3853073 155 132 98
0.2077866 0.2371197 -0.1434286 0.5998963 0.6845833 -0.4140896 158 132 101
0.3149147 0.2837481 -0.1178641 0.7157592 0.6449217 -0.2678895 155 133 102
0.1126785 0.05397625 -0.1722236 0.5295804 0.2536842 -0.8094375 64 58 67
0.2123394 0.2669998 -0.1486421 0.5706246 0.7175149 -0.3994493 156 132 101
0.131506 0.07464407 -0.1737404 0.5709493 0.3240764 -0.7543152 197 183 165
0.131506 0.07464407 -0.1737404 0.5709493 0.3240764 -0.7543152 197 183 165
0.1973858 0.2511096 -0.1736188 0.5429562 0.6907361 -0.4775795 158 132 102
0.2120743 0.2282362 -0.170675 0.5969845 0.64248 -0.4804465 155 130 97
0.2022495 0.2431557 -0.1740355 0.5602546 0.6735693 -0.4820986 157 132 98
0.2031136 0.2226503 -0.182168 0.5767725 0.6322501 -0.5172943 157 134 104
0.2031136 0.2226503 -0.182168 0.5767725 0.6322501 -0.5172943 157 134 104
0.1932507 0.209888 -0.1913512 0.5625409 0.6109713 -0.5570116 155 133 103
0.1931858 0.1961851 -0.2088277 0.5590358 0.5677152 -0.6043 156 136 102
0.1790714 0.2848248 -0.2165134 0.447581 0.7119068 -0.5411655 159 134 103
0.1415844 0.1553196 -0.2459507 0.4376438 0.4801 -0.7602447 160 136 102
0.1537762 0.2986701 0.4020665 0.2935021 0.5700513 0.7673969 157 129 93
0.1032696 0.1002476 0.3799617 0.2541666 0.246729 0.93516 93 90 85
0.1690178 0.2797944 0.3894429 0.3324201 0.5502928 0.7659469 161 134 98
-0.2147255 -0.1986393 0.2898095 -0.5214701 -0.482404 0.7038148 115 92 79
0.1795883 0.2574492 0.3777146 0.3656698 0.5242067 0.7690858 161 133 97
0.1847534 0.2658201 0.3759623 0.3723916 0.5357907 0.7577947 164 135 97
0.09177971 0.07755737 0.3524883 0.2464503 0.2082599 0.9465147 143 132 146
0.09177971 0.07755737 0.3524883 0.2464503 0.2082599 0.9465147 143 132 146
0.02075005 0.01619195 0.3352442 0.06170544 0.04815081 0.9969323 192 184 168
0.1818066 0.2719334 0.3693624 0.3684873 0.5511572 0.7486272 165 136 99
0.1818066 0.2719334 0.3693624 0.3684873 0.5511572 0.7486272 165 136 99
-0.03015137 -0.0349098 0.3212206 -0.09291186 -0.107575 0.9898459 181 163 158
-0.06178474 -0.06542268 0.3123331 -0.1900849 -0.2012772 0.9609137 124 117 115
-0.09261703 -0.09520595 0.3044543 -0.2788272 -0.2866212 0.9165717 130 117 113
-0.1220417 -0.1206472 0.2974124 -0.3554217 -0.3513604 0.8661532 141 121 121
0.01806831 -0.001657894 0.3283255 0.05494786 -0.00504185 0.9984764 160 154 146
-0.02259064 -0.02515221 0.3173547 -0.07078367 -0.07880989 0.9943734 117 108 111
0.02864838 0.03518103 0.3279274 0.08653764 0.1062707 0.9905644 176 172 161
-0.152853 -0.1484352 0.2863619 -0.4282417 -0.4158644 0.8022879 217 200 178
-0.00810051 -0.03242918 0.3157337 -0.02551357 -0.1021398 0.9944428 170 155 147
-0.00810051 -0.03242918 0.3157337 -0.02551357 -0.1021398 0.9944428 170 155 147
-0.1859207 -0.1862866 0.275358 -0.4880982 -0.4890587 0.7228981 191 168 144
-0.01231766 -0.01880178 0.3131588 -0.03923266 -0.05988506 0.997434 130 121 122
0.07307816 0.0502288 0.3288503 0.2145594 0.1474731 0.9655133 172 164 161
0.07307816 0.0502288 0.3288503 0.2145594 0.1474731 0.9655133 172 164 161
0.1853619 0.2808503 0.3533611 0.379875 0.5755661 0.7241676 164 134 100
0.0895977 0.06549247 0.3307898 0.2567924 0.1877054 0.9480635 168 159 151
0.0895977 0.06549247 0.3307898 0.2567924 0.1877054 0.9480635 168 159 151
-0.1139622 -0.1086122 0.2859433 -0.3491315 -0.3327414 0.8760082 114 113 114
0.05080605 0.03226839 0.3215914 0.155287 0.09862731 0.9829337 143 138 136
0.1908283 0.2486746 0.3515844 0.4051327 0.5279417 0.7464215 164 134 102
-0.1084881 -0.1150358 0.282901 -0.3347443 -0.3549474 0.8729024 68 63 64
-0.1084881 -0.1150358 0.282901 -0.3347443 -0.3549474 0.8729024 68 63 64
0.1756859 0.2679459 0.3394172 0.3763947 0.5740554 0.7271777 161 134 98
-0.1642685 -0.166073 0.2640731 -0.4659297 -0.4710481 0.7490148 213 192 166
-0.0894928 -0.1012092 0.2785907 -0.28904 -0.3268811 0.8997803 167 153 142
-0.1903591 -0.1774727 0.2557983 -0.5216475 -0.4863344 0.7009727 198 180 157
-0.1041069 -0.122008 0.2726216 -0.329138 -0.3857329 0.8619038 133 121 112
0.1140518 0.08032487 0.320097 0.3266339 0.230043 0.9167281 119 108 104
-0.04890251 -0.06624706 0.2825127 -0.1661837 -0.2251251 0.9600529 131 121 131
0.02990723 0.002071489 0.2988098 0.09958789 0.006897837 0.9950048 137 132 135
0.2023697 0.256231 0.3354988 0.4322726 0.5473231 0.7166435 161 135 98
-0.1193275 -0.1369954 0.262609 -0.3736835 -0.4290119 0.8223804 198 188 174
-0.08894539 -0.08828284 0.2689536 -0.2997648 -0.2975318 0.9064303 170 164 157
-0.1778526 -0.1878233 0.2445421 -0.4996373 -0.5276476 0.6869866 187 166 139
0.05996513 0.03538514 0.2956805 0.1974045 0.1164874 0.9733767 173 167 160
0.2022934 0.2675454 0.3254905 0.4328211 0.5724325 0.69641 164 134 96
0.02320099 -0.02341086 0.2864082 0.08047559 -0.08120357 0.9934434 211 194 184
0.1078415 0.07197694 0.3031287 0.3270967 0.218315 0.9194272 88 83 83
0.09410667 0.05751627 0.2986894 0.2955598 0.1806407 0.9380903 109 102 104
-0.1025448 -0.1213811 0.2558725 -0.3404577 -0.4029958 0.8495193 127 119 115
-0.1510544 -0.1681047 0.2446064 -0.453576 -0.5047737 0.7344877 215 194 168
-0.1291924 -0.1479289 0.2461238 -0.4102885 -0.4697918 0.7816387 218 199 178
-0.1008015 -0.1252626 0.2480865 -0.3409689 -0.4237106 0.8391719 155 144 136
0.09862137 0.06430823 0.2894087 0.3156484 0.2058255 0.926284 164 152 144
-0.1502895 -0.1685749 0.2351642 -0.4609445 -0.5170264 0.7212586 215 190 164
0.1196899 0.07658166 0.2920711 0.3685019 0.23578 0.8992298 146 132 132
0.09882545 0.05497184 0.2842126 0.3230812 0.1797145 0.9291508 201 191 179
0.01878357 -0.01580648 0.265964 0.07032552 -0.05917935 0.9957671 210 194 177
-0.0402813 -0.06667116 0.2518085 -0.152823 -0.2529434 0.955335 168 151 144
-0.02045822 -0.05704597 0.2549741 -0.07806174 -0.2176684 0.9728961 160 141 137
-0.07543945 -0.1082122 0.2410423 -0.274548 -0.3938183 0.8772289 120 117 119
-0.002456665 -0.03690062 0.2564085 -0.009482932 -0.1424395 0.989758 146 135 126
-0.1194401 -0.1464335 0.2314667 -0.3997234 -0.4900609 0.7746364 218 198 177
0.128355 0.08427817 0.2820479 0.3996896 0.262437 0.8782796 149 144 134
-0.02396011 -0.05277728 0.2482424 -0.09399101 -0.2070353 0.9738081 131 119 117
-0.1644459 -0.1884381 0.2115197 -0.5020412 -0.5752879 0.6457542 178 161 132
0.08224487 0.03761225 0.2630529 0.2956694 0.1352156 0.9456724 194 187 177
-0.1746769 -0.203483 0.206766 -0.5158357 -0.6009027 0.6105976 105 94 82
-0.01235962 -0.05376951 0.238946 -0.05039955 -0.2192591 0.974364 111 100 101
0.05741119 0.02440891 0.2526686 0.2205949 0.09378804 0.9708458 185 174 163
-0.04816055 -0.08530714 0.2293634 -0.1930995 -0.3420385 0.9196316 193 179 176
-0.04816055 -0.08530714 0.2293634 -0.1930995 -0.3420385 0.9196316 193 179 176
0.09381294 0.04584539 0.2589762 0.3359659 0.164183 0.9274539 122 117 115
-0.07823944 -0.1034803 0.2208604 -0.305453 -0.4039953 0.8622564 104 91 96
0.1216221 0.07880248 0.2625191 0.4055916 0.2627946 0.8754624 145 143 139
0.1143208 0.06650558 0.2606546 0.391122 0.2275334 0.8917692 194 189 186
0.06169891 0.007653669 0.2494868 0.2399646 0.02976729 0.9703252 183 176 177
-0.08597374 -0.1213224 0.2166299 -0.3272038 -0.4617355 0.8244622 130 119 115
-0.08597374 -0.1213224 0.2166299 -0.3272038 -0.4617355 0.8244622 130 119 115
0.07288933 0.01562648 0.2486967 0.2807444 0.06018778 0.9578935 127 122 116
-0.1026936 -0.1357715 0.2119099 -0.377801 -0.499492 0.7795987 213 198 181
-0.1577625 -0.1835832 0.2001438 -0.5022926 -0.5845017 0.6372284 190 171 144
0.04184723 -0.01790102 0.2411308 0.1705343 -0.0729496 0.9826476 89 91 91
-0.1238213 -0.136739 0.2064791 -0.4472009 -0.4938555 0.7457333 215 199 180
0.0921936 0.04126544 0.25071 0.3410883 0.1526696 0.9275509 165 150 141
-0.1215458 -0.1441551 0.2049671 -0.4364207 -0.5176015 0.7359522 217 200 180
0.07398987 0.02336408 0.2393298 0.2940853 0.09286453 0.9512571 210 192 178
-0.08527374 -0.1285916 0.2057956 -0.3315278 -0.4999394 0.8000936 120 110 100
0.2274151 0.2665932 0.2661403 0.5168255 0.605862 0.6048328 162 134 100
0.2299805 0.2506239 0.2630258 0.5348586 0.5828685 0.6117111 161 134 98
0.1302719 0.07562509 0.2378004 0.4627873 0.268656 0.8447792 205 190 173
-0.1418781 -0.1772807 0.1815317 -0.4880421 -0.6098223 0.6244451 200 177 148
-0.1647339 -0.2017571 0.1767893 -0.5233006 -0.6409103 0.5615963 109 97 85
0.1648388 0.09808818 0.216347 0.5701098 0.3392468 0.7482556 78 75 77
0.1178303 0.05199807 0.2062894 0.4845124 0.2138135 0.848252 72 61 68
-0.1521149 -0.1985115 0.1477472 -0.5236786 -0.6834062 0.5086421 152 128 104
0.1311417 0.05980031 0.1980158 0.5354529 0.2441653 0.8085008 42 40 50
0.0282383 -0.03444417 0.1701862 0.1605197 -0.1957968 0.9674177 197 187 176
-0.1436481 -0.1883546 0.134962 -0.5268983 -0.6908807 0.4950376 176 152 126
-0.1430931 -0.1875632 0.1349995 -0.526446 -0.6900537 0.4966694 180 155 129
-0.1268902 -0.1735745 0.1327608 -0.502148 -0.6868939 0.5253799 210 188 162
-0.1268902 -0.1735745 0.1327608 -0.502148 -0.6868939 0.5253799 210 188 162
0.1639042 0.08704796 0.1895429 0.6178757 0.3281479 0.7145268 41 40 49
0.1768761 0.1024012 0.1920174 0.6307282 0.3651558 0.6847212 39 37 53
0.1768761 0.1024012 0.1920174 0.6307282 0.3651558 0.6847212 39 37 53
0.1768761 0.1024012 0.1920174 0.6307282 0.3651558 0.6847212 39 37 53
0.0644455 0.0001438241 0.1660798 0.3617582 0.0008073421 0.9322717 161 150 139
0.112011 0.03529648 0.1728648 0.5359773 0.1688952 0.8271655 47 39 48
0.112011 0.03529648 0.1728648 0.5359773 0.1688952 0.8271655 47 39 48
0.1682682 0.09463413 0.1837577 0.6313362 0.3550638 0.6894521 47 41 44
-0.0364151 -0.0947454 0.1370934 -0.2134788 -0.5554326 0.8036923 44 40 52
0.1518784 0.08290517 0.1733502 0.6200894 0.3384854 0.7077547 38 30 32
0.1518784 0.08290517 0.1733502 0.6200894 0.3384854 0.7077547 38 30 32
0.09804916 0.01766981 0.1621741 0.5151479 0.09283674 0.8520587 45 40 52
0.1275558 0.04952376 0.1663775 0.5921339 0.2298969 0.7723502 141 130 129
0.06348419 -0.01000997 0.1412238 0.4091533 -0.06451389 0.9101821 202 191 176
0.06348419 -0.01000997 0.1412238 0.4091533 -0.06451389 0.9101821 202 191 176
0.04872322 -0.02374485 0.1377221 0.3292023 -0.1604339 0.9305304 59 47 50
0.08448601 0.004630616 0.1422811 0.5103686 0.02797293 0.8595006 127 116 117
0.08621597 0.004788701 0.1424441 0.5175877 0.02874842 0.8551471 127 119 121
-0.05440521 -0.1068637 0.1057197 -0.3403223 -0.6684672 0.6613111 49 43 47
-0.09924507 -0.1580316 0.09036005 -0.4786662 -0.7621979 0.4358131 219 199 174
-0.08424759 -0.1388618 0.09177446 -0.4515962 -0.7443475 0.4919429 220 200 179
0.09448814 0.01466988 0.1198344 0.6163267 0.0956886 0.7816553 146 139 137
0.09448814 0.01466988 0.1198344 0.6163267 0.0956886 0.7816553 146 139 137
0.01067924 -0.06149312 0.1033278 0.0884667 -0.5094081 0.8559656 68 61 65
0.1429787 0.04925729 0.11617 0.7497759 0.2583038 0.6091923 200 188 173
0.2496471 0.2537682 0.1340203 0.6563224 0.6671565 0.3523394 160 133 106
0.05918694 -0.02593569 0.09711194 0.5074029 -0.2223437 0.8325297 120 112 105
0.05918694 -0.02593569 0.09711194 0.5074029 -0.2223437 0.8325297 120 112 105
0.1596622 0.08673409 0.112955 0.7462673 0.4053983 0.5279558 41 40 52
-0.04766083 -0.1222056 0.07214904 -0.3183675 -0.8163155 0.4819452 131 125 124
0.2656441 0.258649 0.1245996 0.6791521 0.6612682 0.3185543 159 134 101
0.2681561 0.2654583 0.1168987 0.6788412 0.6720117 0.2959307 160 133 102
-0.05825424 -0.1222699 0.0440141 -0.4090588 -0.8585742 0.3090651 13 10 10
0.1056099 0.01097974 0.07411134 0.8156117 0.08479513 0.5723524 81 73 76
-0.1214428 -0.1744113 0.02396739 -0.5678239 -0.8154863 0.1120631 205 184 159
0.02612305 -0.06585523 0.04993904 0.3013772 -0.7597607 0.5761383 112 105 100
0.2631207 0.2707921 0.09155548 0.6772485 0.6969942 0.2356554 161 134 103
0.266592 0.2571761 0.08837008 0.7000564 0.6753306 0.2320551 160 135 107
0.266592 0.2571761 0.08837008 0.7000564 0.6753306 0.2320551 160 135 107
-0.04034996 -0.1106595 0.02760196 -0.3335332 -0.9147128 0.2281581 45 33 37
0.05185699 -0.02873012 0.04249024 0.7109711 -0.3938965 0.5825509 207 193 179
0.01633263 -0.06547351 0.02102828 0.231077 -0.9263314 0.297512 217 200 180
0.1998863 0.08351029 0.0514127 0.8977715 0.375079 0.2309155 179 169 163
0.04572296 -0.02548904 0.01048243 0.8564452 -0.47744 0.1963483 213 197 180
0.04572296 -0.02548904 0.01048243 0.8564452 -0.47744 0.1963483 213 197 180
-0.1183586 -0.1751123 -0.02286887 -0.5567364 -0.8236949 -0.1075708 208 186 158
-0.1087093 -0.1760501 -0.02207446 -0.522432 -0.846056 -0.1060848 200 177 150
-0.1330204 -0.1742293 -0.05115962 -0.5909533 -0.774027 -0.2272805 204 179 151
0.2666855 0.2547347 0.01329255 0.7226543 0.6902705 0.03601965 162 135 104
0.2666855 0.2547347 0.01329255 0.7226543 0.6902705 0.03601965 162 135 104
-0.04403305 -0.1112884 -0.04068625 -0.3483364 -0.8803793 -0.3218606 113 109 109
-0.02972412 -0.09219448 -0.04012942 -0.2834893 -0.8792911 -0.3827284 157 147 148
0.1752586 0.08814821 -0.005543113 0.8930103 0.4491491 -0.0282443 197 187 174
0.2651958 0.2584255 0.004989743 0.7161247 0.6978423 0.01347411 165 136 104
0.06497765 0.006670048 -0.03085506 0.899469 0.09233177 -0.4271187 75 69 70
-0.04708099 -0.1096284 -0.05138075 -0.3624299 -0.8439201 -0.3955294 96 85 90
0.05912399 -0.006073105 -0.0337441 0.8650672 -0.08885807 -0.4937236 149 142 137
0.03787613 -0.03733421 -0.04200637 0.5588796 -0.5508835 -0.6198233 214 197 180
0.07782555 0.0004877392 -0.03584588 0.9082713 0.005692212 -0.4183431 104 100 101
-0.09885788 -0.1505076 -0.06806695 -0.5135317 -0.7818336 -0.3535837 220 199 178
-0.05024529 -0.1116588 -0.06039584 -0.3680215 -0.8178446 -0.4423692 116 121 124
-0.05024529 -0.1116588 -0.06039584 -0.3680215 -0.8178446 -0.4423692 116 121 124
-0.05024529 -0.1116588 -0.06039584 -0.3680215 -0.8178446 -0.4423692 116 121 124
0.0182991 -0.0539327 -0.0495472 0.2424091 -0.714449 -0.656354 215 196 179
0.03381729 -0.04424487 -0.04695261 0.4642638 -0.6074198 -0.6445931 213 196 178
0.0394783 -0.02932177 -0.04800498 0.5744597 -0.4266692 -0.6985338 212 195 177
0.1696568 0.09390119 -0.02655494 0.8668375 0.479775 -0.1356788 162 153 151
-0.04002571 -0.1019083 -0.06483734 -0.3145567 -0.8008839 -0.5095479 93 82 91
0.02433586 -0.04268227 -0.05899191 0.3169857 -0.5559559 -0.7683964 214 199 180
0.2681694 0.2612665 -0.01905155 0.7153398 0.6969263 -0.05081987 160 136 107
0.06652832 -0.005800276 -0.05289435 0.7809331 -0.0680857 -0.6208928 185 178 168
0.1473484 0.08977281 -0.04145849 0.8303524 0.5058967 -0.233631 203 192 178
0.0590229 -0.01889685 -0.0571568 0.7000937 -0.224143 -0.6779592 211 195 179
0.0590229 -0.01889685 -0.0571568 0.7000937 -0.224143 -0.6779592 211 195 179
0.2618675 0.2597384 -0.02959204 0.7077131 0.701959 -0.07997429 161 134 100
-0.1103344 -0.1677693 -0.09273171 -0.4988506 -0.7585286 -0.4192643 212 190 163
-0.06070137 -0.1217996 -0.08730054 -0.3754359 -0.7533265 -0.5399508 166 157 151
0.1480484 0.07110391 -0.05459666 0.8554012 0.4108276 -0.3154512 204 191 178
0.05278969 -0.02076005 -0.07341731 0.5689868 -0.2237595 -0.791319 212 196 179
0.05278969 -0.02076005 -0.07341731 0.5689868 -0.2237595 -0.791319 212 196 179
-0.01933479 -0.08057822 -0.08611727 -0.1617826 -0.674233 -0.7205805 144 136 140
-0.01933479 -0.08057822 -0.08611727 -0.1617826 -0.674233 -0.7205805 144 136 140
-0.01872063 -0.09940636 -0.08696115 -0.1403394 -0.7452009 -0.6519052 72 52 55
0.1846676 0.09710233 -0.05680919 0.8540071 0.449056 -0.2627177 175 163 160
0.2599449 0.2658131 -0.04485488 0.6941375 0.7098075 -0.1197771 160 134 106
-0.08801079 -0.1207867 -0.1031775 -0.4846236 -0.665101 -0.5681379 175 165 161
-0.08676147 -0.138052 -0.1043593 -0.4481732 -0.7131184 -0.539076 216 200 178
0.1715546 0.08053459 -0.06299222 0.8590106 0.403254 -0.3154156 121 114 115
-0.0565815 -0.1016693 -0.1022172 -0.3653351 -0.6564574 -0.6599954 105 100 100
0.002679825 -0.06972212 -0.09559 0.02264396 -0.5891374 -0.8077156 71 61 68
-0.1227188 -0.1414085 -0.1161127 -0.5570167 -0.6418487 -0.5270318 214 201 179
0.02430725 -0.04195519 -0.09353888 0.230708 -0.3982102 -0.8878077 173 163 146
0.2487068 0.2731793 -0.06216657 0.6638755 0.7292 -0.1659418 162 135 105
0.254137 0.2594908 -0.0619092 0.6897503 0.7042808 -0.168027 160 134 102
0.1457691 0.06812125 -0.08120656 0.8087851 0.3779638 -0.4505663 82 76 74
-0.1197529 -0.1659204 -0.1256881 -0.4986768 -0.6909283 -0.5233923 211 194 170
-0.1197529 -0.1659204 -0.1256881 -0.4986768 -0.6909283 -0.5233923 211 194 170
0.02402878 -0.04054913 -0.1044253 0.2097303 -0.3539248 -0.9114551 116 95 101
0.1778927 0.09518997 -0.08087623 0.8184022 0.4379252 -0.3720743 203 191 174
0.2507629 0.2640002 -0.06928742 0.6765553 0.7122694 -0.1869366 158 135 104
-0.06999397 -0.1385605 -0.121009 -0.3556095 -0.7039666 -0.614795 219 199 180
0.2419147 0.2522841 -0.07080388 0.67834 0.7074163 -0.1985373 161 135 101
0.06585503 0.003007392 -0.1028374 0.5391172 0.02461978 -0.8418709 207 193 175
-0.034235 -0.09045918 -0.1215066 -0.2204413 -0.5824723 -0.7823884 161 151 144
-0.125042 -0.1706643 -0.1366436 -0.4964748 -0.6776167 -0.5425389 199 178 151
0.1598454 0.08523698 -0.09153056 0.7875615 0.4199645 -0.4509731 203 189 174
0.1172123 0.04175764 -0.1025403 0.7269627 0.2589852 -0.6359652 204 190 174
-0.1100845 -0.1568892 -0.1403214 -0.4634454 -0.6604885 -0.5907396 211 190 170
-0.04826355 -0.1031668 -0.1309491 -0.2780921 -0.5944419 -0.7545221 84 84 88
-0.1214275 -0.165741 -0.1469907 -0.4806572 -0.656067 -0.581846 208 187 159
0.1415977 0.07388992 -0.1061152 0.7384295 0.3853345 -0.5533888 166 160 152
0.05394554 -0.008985329 -0.1243699 0.3970588 -0.06613528 -0.9154072 164 152 144
0.1564293 0.09079023 -0.1095773 0.7397183 0.4293261 -0.5181659 126 119 121
-0.1051693 -0.1485627 -0.1518476 -0.4436728 -0.6267344 -0.6405923 218 198 175
0.09401512 0.02528408 -0.1206789 0.6063406 0.163067 -0.7783059 157 147 136
-0.05257797 -0.1014272 -0.1441917 -0.285804 -0.5513391 -0.7837992 72 69 71
0.1413841 0.0745163 -0.114175 0.7198308 0.3793858 -0.5813004 57 46 53
0.08237839 0.01447292 -0.1275936 0.5399593 0.09486452 -0.8363281 130 119 106
-0.07736206 -0.1262201 -0.1535212 -0.3627381 -0.5918255 -0.7198359 116 105 95
-0.09360886 -0.1383004 -0.1580905 -0.4070635 -0.6014072 -0.6874654 218 199 179
0.1409168 0.07091387 -0.1273352 0.6950865 0.3497899 -0.6280938 59 51 57
-0.1529655 -0.178035 -0.1734639 -0.5240985 -0.6099928 -0.5943312 186 166 141
-0.06140709 -0.1087354 -0.1619594 -0.3002619 -0.5316827 -0.791932 35 27 28
0.09800148 0.03141917 -0.137447 0.5707499 0.1829818 -0.8004763 72 57 52
0.1489029 0.08662021 -0.1317997 0.6864998 0.3993526 -0.6076475 143 134 137
0.04427719 -0.001465053 -0.1481177 0.2863966 -0.009476353 -0.9580643 144 139 136
-0.01338387 -0.05271415 -0.160653 -0.07891 -0.3107976 -0.9471949 94 81 72
0.09469032 0.03174009 -0.147415 0.5317929 0.1782564 -0.8279016 182 178 177
0.04377747 -0.007442586 -0.1593157 0.2646948 -0.04500063 -0.9632817 75 65 62
0.09617233 0.04704325 -0.151335 0.5187945 0.2537713 -0.8163654 31 27 36
0.2378807 0.2658462 -0.1295972 0.626747 0.7004279 -0.3414512 158 134 106
0.1288242 0.07059391 -0.1483035 0.6171465 0.3381878 -0.7104641 69 63 72
0.2153015 0.2769476 -0.1389825 0.5706062 0.7339848 -0.3683406 157 132 100
0.2385445 0.276737 -0.1405832 0.6093523 0.7069137 -0.3591141 160 132 103
0.08665848 0.03510585 -0.1639016 0.4592514 0.1860454 -0.8686054 83 75 77
0.1452847 0.08824314 -0.1593752 0.6235052 0.3787052 -0.6839763 77 60 67
0.148737 0.08849552 -0.1591318 0.6326251 0.3763993 -0.6768375 77 60 67
0.09465218 0.04629159 -0.1686568 0.4759633 0.2327796 -0.8480994 66 43 53
0.2256279 0.2514102 -0.1540807 0.6076872 0.6771272 -0.4149881 159 134 103
0.1286144 0.07456203 -0.1691734 0.5710796 0.3310737 -0.7511713 88 86 82
0.1490421 0.09538488 -0.1704618 0.6065993 0.3882151 -0.6937769 194 185 167
0.2150841 0.2813873 -0.1626184 0.5518883 0.722017 -0.4172656 158 134 102
0.157671 0.1045437 -0.1774668 0.6078493 0.4030344 -0.6841655 200 184 162
0.2181664 0.2475526 -0.1790353 0.5811419 0.6594198 -0.4769064 158 132 100
0.2181664 0.2475526 -0.1790353 0.5811419 0.6594198 -0.4769064 158 132 100
0.1872368 0.2348041 -0.1912575 0.5258755 0.6594736 -0.5371681 158 132 102
0.2112064 0.2301409 -0.1984541 0.5707093 0.6218729 -0.5362508 155 132 97
0.1972694 0.3135501 -0.212716 0.4618019 0.7340114 -0.497962 156 134 106
0.1972694 0.3135501 -0.212716 0.4618019 0.7340114 -0.497962 156 134 106
0.2009239 0.1843487 -0.236482 0.5566666 0.5107443 -0.6551813 160 136 104
-0.5480366 -0.3310423 -0.4078341 -0.7219376 -0.4360875 -0.5372466 175 144 106
0.1067619 -0.2486155 0.5152585 0.1834465 -0.4271901 0.8853565 181 147 109
0.1068096 0.2874826 0.4388719 0.1994915 0.5369398 0.8196943 162 132 99
0.1068096 0.2874826 0.4388719 0.1994915 0.5369398 0.8196943 162 132 99
0.1469345 0.1806943 0.4059221 0.3139706 0.3861086 0.8673769 165 138 101
-3.481249 0.06774674 -0.1035845 -0.9993685 0.01944818 -0.0297362 169 144 106
0.1410179 0.2678945 0.4016535 0.2803703 0.532625 0.7985631 163 135 100
0.1524029 0.2500837 0.3884398 0.3132826 0.5140773 0.7984852 161 132 100
0.0874176 0.07392159 0.3788351 0.220888 0.1867861 0.9572458 197 182 161
0.1562958 0.2071211 0.3821539 0.3383619 0.4483928 0.827318 170 137 100
0.1562958 0.2071211 0.3821539 0.3383619 0.4483928 0.827318 170 137 100
0.1637363 0.2207277 0.381655 0.3481461 0.4693246 0.8114978 167 139 103
0.1563663 0.2290065 0.3757287 0.3348489 0.4904033 0.8045998 167 139 111
0.1603088 0.2045063 0.3745444 0.351665 0.4486198 0.8216277 176 153 126
0.1710701 0.2377087 0.3752879 0.3593629 0.4993491 0.7883583 165 137 100
0.08492088 0.05388652 0.3524377 0.2317031 0.1470271 0.9616116 70 53 53
0.08492088 0.05388652 0.3524377 0.2317031 0.1470271 0.9616116 70 53 53
