ply
format ascii 1.0
comment VCGLIB generated
element vertex 637
property float x
property float y
property float z
property float nx
property float ny
property float nz
property uchar red
property uchar green
property uchar blue
element face 0
property list uchar int vertex_indices
end_header
-0.09505081 -0.2581975 -0.05157566 -0.3395524 -0.9223654 -0.184245 57 49 56
-0.1316566 0.4771059 -0.07555676 -0.2629599 0.9529312 -0.1509107 223 73 56
-0.1316566 0.4771059 -0.07555676 -0.2629599 0.9529312 -0.1509107 223 73 56
-0.100297 -0.2616977 -0.02855587 -0.356029 -0.9289609 -0.1013661 60 55 67
-0.1105213 0.3786007 -0.006372452 -0.280188 0.9598092 -0.01615512 209 57 43
-0.1065445 -0.2608659 0.004410744 -0.3780594 -0.925649 0.01565096 56 68 118
-0.0991354 -0.3076035 0.03894711 -0.3045428 -0.9449544 0.119645 48 72 130
-0.1216364 -0.2892327 0.02735138 -0.3861977 -0.918319 0.08684111 49 73 129
-0.1541338 -0.1343569 0.002577782 -0.7537521 -0.657038 0.01260598 65 84 138
-0.1189728 0.4776174 0.03878784 -0.2409633 0.9673495 0.07855953 162 107 89
-0.1358681 -0.2906012 0.03966713 -0.4203348 -0.8990323 0.1227181 49 80 143
-0.2027121 0.4876549 -0.008289337 -0.3837976 0.9232839 -0.01569432 143 124 101
-0.1707668 0.4497221 0.02325344 -0.3545721 0.9337813 0.04828233 150 128 105
-0.1793528 0.4051815 0.04590321 -0.4026116 0.9095526 0.1030436 207 182 162
-0.1930456 -0.2686543 0.04986191 -0.5770197 -0.8030166 0.1490389 82 94 134
-0.1601982 -0.3752385 0.08214092 -0.3849156 -0.9016027 0.1973638 137 87 57
-0.2094164 -0.2746609 0.09907055 -0.5828178 -0.7643968 0.275719 169 143 104
-0.2882757 -0.2203567 0.08565998 -0.7732224 -0.5910478 0.22976 180 152 118
-0.3107681 -0.2250428 0.1343508 -0.7644302 -0.5535624 0.3304772 178 152 122
-0.2413483 -0.3427784 0.1983557 -0.5203949 -0.7390985 0.4276944 187 157 128
-0.2413483 -0.3427784 0.1983557 -0.5203949 -0.7390985 0.4276944 187 157 128
-0.2859392 -0.3096767 0.1760778 -0.6259644 -0.6779294 0.3854612 184 157 127
-0.2691078 -0.3256972 0.2077656 -0.571582 -0.6917772 0.4412917 184 157 121
0.3346424 -0.3684429 -0.5705795 0.4419684 -0.4866094 -0.753575 167 149 122
0.3346424 -0.3684429 -0.5705795 0.4419684 -0.4866094 -0.753575 167 149 122
0.2711964 -0.235759 -0.489881 0.4463793 -0.3880507 -0.8063263 168 149 122
0.2627668 -0.3659605 -0.4746757 0.4015146 -0.5591972 -0.7253168 168 150 122
0.2627668 -0.3659605 -0.4746757 0.4015146 -0.5591972 -0.7253168 168 150 122
0.1185751 0.003518486 -0.2664371 0.406563 0.01206397 -0.9135431 106 89 78
0.08330822 0.1202236 -0.2748547 0.2675706 0.386136 -0.8827825 131 113 93
0.08330822 0.1202236 -0.2748547 0.2675706 0.386136 -0.8827825 131 113 93
0.06697083 0.1873123 -0.2350655 0.2174804 0.6082762 -0.7633494 132 114 94
0.06058407 0.2692107 -0.1275592 0.1992895 0.8855607 -0.4196022 124 84 75
-0.02520657 -0.2217891 -0.1744752 -0.08897012 -0.7828358 -0.6158347 98 88 76
-0.003958702 0.4037583 -0.1101437 -0.009458568 0.9647039 -0.2631674 201 90 72
-0.003958702 0.4037583 -0.1101437 -0.009458568 0.9647039 -0.2631674 201 90 72
-0.08508205 -0.1741713 -0.13482 -0.3603392 -0.7376497 -0.5709891 83 72 77
-0.07359123 0.0281443 -0.1250329 -0.4979547 0.1904383 -0.8460345 84 75 120
-0.05068398 -0.2253019 -0.1029034 -0.200473 -0.8911487 -0.4070192 63 47 47
-0.03263187 0.16323 -0.05388069 -0.1865074 0.9329408 -0.307955 232 182 138
-0.04429722 0.3790441 -0.051054 -0.1150507 0.9844698 -0.1325997 213 76 65
-0.1018276 -0.2201551 -0.06914425 -0.4037154 -0.8728479 -0.2741358 65 58 71
-0.08535385 -0.2934536 -0.05824232 -0.2743483 -0.9432323 -0.1872052 71 45 36
-0.1319847 0.4994318 -0.08459711 -0.2521398 0.9541002 -0.1616119 224 87 72
-0.1104116 -0.1740516 -0.06701994 -0.5094191 -0.803042 -0.3092178 64 71 111
-0.1229525 0.4754994 -0.07052994 -0.2477997 0.9583265 -0.1421468 229 126 135
-0.09670162 -0.2477903 -0.05262852 -0.3566384 -0.9138577 -0.1940955 58 52 71
-0.1026287 -0.2485488 -0.03004169 -0.3792965 -0.9185897 -0.1110285 61 57 77
-0.1026287 -0.2485488 -0.03004169 -0.3792965 -0.9185897 -0.1110285 61 57 77
-0.1157627 0.3906447 -0.00946188 -0.2840481 0.9585289 -0.02321671 217 70 66
-0.1140242 -0.2059727 0.007458687 -0.4840846 -0.8744481 0.03166553 56 77 129
-0.1140242 -0.2059727 0.007458687 -0.4840846 -0.8744481 0.03166553 56 77 129
-0.165019 -0.1131551 -0.003974915 -0.824568 -0.565414 -0.01986188 60 84 136
-0.1042557 -0.2889212 0.03573418 -0.3371488 -0.9343322 0.1155595 45 73 134
-0.135232 -0.2706023 0.01935148 -0.4461188 -0.892694 0.0638389 47 77 139
-0.1628904 0.4707582 0.02726507 -0.3265066 0.9436136 0.05465161 150 121 100
-0.1628904 0.4707582 0.02726507 -0.3265066 0.9436136 0.05465161 150 121 100
-0.1821518 -0.2417647 0.05521727 -0.5919814 -0.7857193 0.1794525 109 106 135
-0.1637869 -0.3490736 0.07951736 -0.416017 -0.8866435 0.2019733 123 86 62
-0.007386208 0.2182559 0.1741323 -0.02644479 0.78142 0.6234449 230 212 190
-0.1800699 0.4300277 0.08455658 -0.3800442 0.9075894 0.1784598 134 113 94
-0.2346649 0.1050164 0.08147287 -0.8701212 0.3893935 0.3020958 164 141 113
-0.1002131 0.3396481 0.156518 -0.2588341 0.8772561 0.4042607 155 134 106
-0.2179213 -0.2438062 0.09352493 -0.6407285 -0.7168351 0.2749805 176 146 114
-0.3185902 -0.1833064 0.1072669 -0.8320603 -0.4787405 0.2801484 177 149 117
-0.3159437 -0.1751454 0.1292963 -0.8234465 -0.4564827 0.3369859 178 151 122
-0.3013926 -0.2295124 0.1441431 -0.7435772 -0.5662389 0.355621 178 150 120
-0.2571478 -0.2955487 0.187891 -0.5918453 -0.6802279 0.4324456 181 154 121
0.2260504 -0.3686628 -0.6216097 0.2985195 -0.4868518 -0.8208906 165 148 122
0.2260504 -0.3686628 -0.6216097 0.2985195 -0.4868518 -0.8208906 165 148 122
0.1903811 -0.2355454 -0.526525 0.3134274 -0.3877821 -0.8668265 168 148 122
0.1820974 -0.365684 -0.5110116 0.2783385 -0.5589531 -0.7810884 167 148 123
0.1820974 -0.365684 -0.5110116 0.2783385 -0.5589531 -0.7810884 167 148 123
0.03174019 0.1056224 -0.2961676 0.1004322 0.33421 -0.9371324 156 135 111
-0.03690529 -0.2288446 -0.1790445 -0.1260008 -0.7813137 -0.6112877 100 86 72
-0.004888535 0.3802424 -0.1109457 -0.01234081 0.9598987 -0.2800756 206 67 48
-0.07992554 -0.1738029 -0.1328893 -0.3431353 -0.7461681 -0.5705185 94 82 74
-0.0800724 -0.2246371 -0.1139634 -0.3029461 -0.8498922 -0.4311692 85 66 60
-0.1046371 -0.2977691 -0.1088061 -0.313428 -0.8919315 -0.3259157 80 67 56
-0.06828499 -0.3160734 -0.08536506 -0.204175 -0.9450727 -0.2552451 127 107 87
-0.05713081 0.3843758 -0.0558095 -0.1455245 0.9790881 -0.1421589 199 47 32
-0.1258221 -0.2107224 -0.07807016 -0.4885416 -0.8181924 -0.3031306 60 56 75
-0.1075325 -0.2831095 -0.06651211 -0.3468103 -0.9130756 -0.2145127 72 45 38
-0.1263428 0.4698879 -0.07179165 -0.2568753 0.9553583 -0.1459641 235 150 142
-0.1185436 -0.2398957 -0.06070805 -0.4320314 -0.8742981 -0.2212501 50 48 72
-0.1162987 -0.2357905 -0.0351491 -0.438448 -0.888934 -0.1325127 65 67 97
-0.09083748 0.3632846 -0.01784897 -0.2423015 0.969032 -0.04761066 206 43 31
-0.1170845 0.3999763 -0.009996891 -0.2808584 0.9594496 -0.02398021 220 62 57
-0.1494827 -0.192177 -0.005393744 -0.61382 -0.7891353 -0.02214829 58 81 137
-0.1219826 -0.2892774 0.02273607 -0.3875332 -0.9190215 0.07223149 48 71 128
-0.1521969 -0.2530923 0.01306033 -0.5148426 -0.8561456 0.04417972 49 79 136
-0.1601772 -0.2730576 0.01569605 -0.5053548 -0.8614895 0.04952061 45 78 137
-0.1662712 0.4882135 0.02586102 -0.3219824 0.9454201 0.0500796 155 104 84
-0.1662712 0.4882135 0.02586102 -0.3219824 0.9454201 0.0500796 155 104 84
-0.1731148 0.4452468 0.05315113 -0.3601571 0.9263149 0.1105784 166 60 53
-0.1731148 0.4452468 0.05315113 -0.3601571 0.9263149 0.1105784 166 60 53
-0.2756386 -0.1890801 0.07500625 -0.8046209 -0.5519468 0.2189519 142 128 115
-0.29669 -0.2473525 0.1729355 -0.7010307 -0.5844541 0.4086187 176 151 116
0.1150398 -0.3685743 -0.6517192 0.151866 -0.4865613 -0.8603457 162 144 119
0.1150398 -0.3685743 -0.6517192 0.151866 -0.4865613 -0.8603457 162 144 119
0.689661 -0.05694699 -0.4577826 0.8311943 -0.06863374 -0.5517294 152 137 111
0.09454536 -0.2363804 -0.5510913 0.1557442 -0.3893886 -0.9078107 165 147 120
0.08181381 -0.3660915 -0.5364698 0.1249807 -0.55925 -0.8195238 164 147 123
0.08181381 -0.3660915 -0.5364698 0.1249807 -0.55925 -0.8195238 164 147 123
0.02523613 0.08780062 -0.2978483 0.08100352 0.2818245 -0.9560405 158 137 109
0.008699417 0.2698055 -0.1352604 0.02881201 0.8935815 -0.4479753 119 69 50
-0.1121464 -0.17781 -0.1391142 -0.4448783 -0.7053622 -0.5518582 97 84 74
-0.01393127 0.3571745 -0.1131126 -0.03715837 0.9526782 -0.301701 204 68 48
-0.01393127 0.3571745 -0.1131126 -0.03715837 0.9526782 -0.301701 204 68 48
-0.1064663 -0.2250786 -0.1189755 -0.3858117 -0.8156381 -0.4311425 86 74 73
-0.1341 -0.2028001 -0.07965222 -0.5241513 -0.792677 -0.3113336 73 51 45
-0.1166 0.4576998 -0.07009931 -0.2441927 0.9585497 -0.1468073 213 86 80
-0.1302528 -0.2734306 -0.07074946 -0.4187878 -0.8791317 -0.2274731 78 55 46
-0.08384132 0.3875594 -0.06068447 -0.209007 0.9661421 -0.1512796 197 48 37
-0.1268139 -0.2333922 -0.06225344 -0.4648312 -0.8554896 -0.2281875 69 47 45
-0.1411362 -0.2868277 -0.04660075 -0.4368868 -0.8878745 -0.1442525 63 49 46
-0.1494904 -0.2870914 -0.04666033 -0.4571206 -0.8778855 -0.1426808 63 48 45
-0.1259575 0.406208 -0.01157371 -0.29606 0.9547819 -0.02720371 222 93 85
-0.1760712 -0.2560736 0.01273781 -0.5660985 -0.8233197 0.0409542 46 75 134
-0.1589966 0.5014251 0.02696651 -0.3018616 0.9519761 0.05119703 160 89 70
-0.1589966 0.5014251 0.02696651 -0.3018616 0.9519761 0.05119703 160 89 70
-0.1684952 0.4590716 0.05377275 -0.3424947 0.93314 0.1093022 157 90 73
-0.1684952 0.4590716 0.05377275 -0.3424947 0.93314 0.1093022 157 90 73
-0.3211536 -0.1532889 0.06663255 -0.8870529 -0.4233967 0.1840446 123 115 109
-0.0614109 0.3145541 0.1499928 -0.1735482 0.8889348 0.4238819 153 130 103
0.01317024 0.2533419 0.1800415 0.04233721 0.8143958 0.5787633 160 140 118
0.003461838 -0.3683509 -0.6618452 0.004570373 -0.4863027 -0.8737785 162 142 117
0.003461838 -0.3683509 -0.6618452 0.004570373 -0.4863027 -0.8737785 162 142 117
-0.012043 -0.2363866 -0.5592362 -0.01983159 -0.3892654 -0.9209121 164 147 121
-0.003908157 -0.3657222 -0.5428362 -0.005970731 -0.5587361 -0.8293241 165 147 122
-0.003908157 -0.3657222 -0.5428362 -0.005970731 -0.5587361 -0.8293241 165 147 122
0.5833778 -0.1430611 -0.4710009 0.7642766 -0.1874227 -0.6170527 160 143 123
-0.1471176 -0.1994104 -0.07980943 -0.5650949 -0.7659574 -0.3065568 92 79 72
0.05836487 0.1537435 -0.0665078 0.3290221 0.8667033 -0.3749265 191 148 108
-0.1401272 0.4681822 -0.04171353 -0.2856942 0.9545397 -0.08504641 217 82 72
-0.1266479 0.4092074 -0.0115882 -0.2955511 0.9549441 -0.02704273 232 142 144
-0.1651783 0.5099665 0.02695459 -0.3077509 0.9501407 0.05022027 179 55 48
-0.1651783 0.5099665 0.02695459 -0.3077509 0.9501407 0.05022027 179 55 48
-0.2148285 -0.2671112 0.02919098 -0.6244598 -0.7764342 0.08485185 48 75 131
-0.2844543 -0.1367823 0.07917857 -0.8741362 -0.4203359 0.243318 129 119 119
-0.03704262 -0.3490629 0.09145533 -0.1021186 -0.962292 0.2521228 49 82 142
-0.1016102 0.4219587 0.1219207 -0.2253899 0.935981 0.2704422 147 83 65
-0.001443863 0.2515433 0.1212264 -0.005170788 0.9008315 0.4341381 154 131 104
-0.1103687 -0.3683563 -0.6522493 -0.145766 -0.486495 -0.8614377 165 145 121
-0.1103687 -0.3683563 -0.6522493 -0.145766 -0.486495 -0.8614377 165 145 121
-0.104063 -0.2354127 -0.5501833 -0.1713219 -0.3875665 -0.905782 163 146 120
-0.1026478 -0.3659878 -0.532879 -0.1568204 -0.5591389 -0.8141075 165 147 121
-0.1026478 -0.3659878 -0.532879 -0.1568204 -0.5591389 -0.8141075 165 147 121
-0.07300568 0.0655118 -0.2936285 -0.2358223 0.2116156 -0.948476 152 134 113
-0.3719387 0.322176 -0.1120472 -0.7369959 0.6383913 -0.2220213 121 93 74
-0.1170597 -0.191232 -0.1365132 -0.4459344 -0.7284909 -0.5200418 99 83 71
-0.1039276 0.4410526 -0.0776701 -0.2260573 0.959352 -0.1689435 200 60 48
0.02550316 0.1921866 -0.06212664 0.1252719 0.9440233 -0.305167 134 91 67
0.02550316 0.1921866 -0.06212664 0.1252719 0.9440233 -0.305167 134 91 67
-0.1656418 0.5117893 0.0270493 -0.3075376 0.9502097 0.05022088 192 45 38
-0.09360695 0.4395804 0.120158 -0.2012094 0.9448839 0.2582811 141 120 98
0.08740616 0.1979981 0.09319472 0.3709238 0.8402406 0.3954886 158 135 105
0.09943962 0.2083592 0.1175172 0.3838477 0.8042893 0.4536293 156 134 107
-0.07025337 0.4161983 0.1684494 -0.1545873 0.9158131 0.3706603 143 121 94
-0.07025337 0.4161983 0.1684494 -0.1545873 0.9158131 0.3706603 143 121 94
0.03224373 0.3195655 0.1601779 0.08983711 0.8903697 0.446286 149 126 98
0.03224373 0.3195655 0.1601779 0.08983711 0.8903697 0.446286 149 126 98
-0.2263327 -0.3686658 -0.6215672 -0.2988722 -0.486823 -0.8207793 164 146 122
-0.2263327 -0.3686658 -0.6215672 -0.2988722 -0.486823 -0.8207793 164 146 122
-0.1915817 -0.2354142 -0.525722 -0.3155957 -0.3878018 -0.8660306 161 144 118
-0.1893759 -0.3657132 -0.5084195 -0.2894357 -0.5589438 -0.7770514 162 145 117
-0.1893759 -0.3657132 -0.5084195 -0.2894357 -0.5589438 -0.7770514 162 145 117
-0.1079245 0.04314414 -0.2829976 -0.3527683 0.1410235 -0.9250227 114 101 86
-0.1342058 0.08734044 -0.2612982 -0.4379261 0.285 -0.8526404 153 134 111
-0.3587608 0.3153785 -0.1164231 -0.7296964 0.6414595 -0.2367971 194 153 119
-0.148035 -0.203872 -0.08016586 -0.5599011 -0.7710886 -0.3032049 94 83 73
-0.4609575 -0.01710457 0.09957647 -0.9768113 -0.03624615 0.2110117 129 56 52
-0.008024216 0.2164755 -0.05073547 -0.03606612 0.9729838 -0.2280387 190 164 143
-0.105855 -0.3766445 -0.005884171 -0.2705343 -0.9625929 -0.01503821 75 76 95
-0.1600313 0.5074435 0.02503014 -0.3004333 0.9526445 0.0469901 202 49 37
-0.1300106 0.5148484 0.103601 -0.2403056 0.9516219 0.1914913 174 159 144
-0.09067154 0.4537281 0.1188936 -0.1897965 0.9497579 0.2488719 140 118 94
-0.03726387 0.3990859 0.1269398 -0.08863012 0.9492046 0.3019195 163 81 63
-0.004455566 0.3199461 0.1192598 -0.01304783 0.9369408 0.3492444 197 40 31
-0.08026409 0.4694993 0.1542287 -0.1603172 0.9377645 0.308052 139 118 98
0.09466553 0.2098682 0.09029627 0.382789 0.8486218 0.3651215 154 130 102
-0.03396225 0.4380338 0.1540236 -0.07294853 0.9408659 0.330832 140 117 96
0.1170101 0.2264392 0.1104302 0.4212352 0.8151789 0.3975478 154 132 103
0.03446388 0.3458717 0.158772 0.09018883 0.9051146 0.4154918 144 122 96
0.03446388 0.3458717 0.158772 0.09018883 0.9051146 0.4154918 144 122 96
0.03446388 0.3458717 0.158772 0.09018883 0.9051146 0.4154918 144 122 96
0.04277992 0.3437715 0.1739054 0.1103646 0.8868694 0.4486449 149 126 99
0.1555376 0.2140319 0.1440692 0.5162904 0.7104559 0.4782223 154 131 104
-0.3301697 -0.3685673 -0.5735564 -0.435862 -0.4865513 -0.7571605 163 146 122
-0.3301697 -0.3685673 -0.5735564 -0.435862 -0.4865513 -0.7571605 163 146 122
-0.2879076 -0.2361708 -0.4795098 -0.474217 -0.3890006 -0.789808 160 142 119
-0.280962 -0.3660627 -0.4642501 -0.4292275 -0.5592364 -0.7092379 163 145 119
-0.280962 -0.3660627 -0.4642501 -0.4292275 -0.5592364 -0.7092379 163 145 119
-0.34793 0.3046149 -0.1222363 -0.7274045 0.6368473 -0.2555549 144 123 103
-0.1625872 0.09131327 -0.2202578 -0.5633779 0.316408 -0.7632113 117 104 92
-0.2202644 0.1783048 -0.1881561 -0.6475236 0.5241725 -0.5531331 147 129 106
-0.1647711 -0.292393 -0.07162189 -0.4801295 -0.8520092 -0.2087004 154 132 107
-0.3890562 -0.02612448 0.1017532 -0.9654239 -0.06482663 0.2524957 116 55 47
-0.2064486 -0.05404436 0.01153755 -0.9659908 -0.2528783 0.05398521 108 51 42
-0.08259678 -0.3687751 -0.01909351 -0.2182826 -0.9745802 -0.05045937 67 75 101
-0.1325502 0.4979305 0.009387016 -0.257201 0.9661863 0.0182146 209 54 41
-0.1116648 0.448015 0.02884388 -0.241374 0.9684272 0.06234879 208 59 45
-0.09205437 -0.1417556 0.0673399 -0.5059512 -0.7791203 0.370115 53 74 130
-0.1086645 0.5145716 0.0912056 -0.2035793 0.9640325 0.1708706 185 47 42
-0.003002167 -0.1216081 0.06665707 -0.02164334 -0.876702 0.4805468 47 77 142
-0.06750584 0.4620898 0.1052017 -0.1410198 0.9653062 0.2197666 181 47 46
-0.02933788 0.3673326 0.09133625 -0.07727555 0.9675487 0.2405783 197 47 33
0.01312542 0.2908725 0.08317661 0.04334456 0.9605591 0.2746772 213 65 48
0.01117802 0.3311596 0.0865097 0.03264081 0.9670159 0.2526161 203 45 32
0.01117802 0.3311596 0.0865097 0.03264081 0.9670159 0.2526161 203 45 32
-0.04314899 0.4809415 0.1320171 -0.08619546 0.9607401 0.2637206 152 134 118
-0.04423809 0.436132 0.1327305 -0.09658477 0.9522045 0.2897897 165 148 132
-0.04683018 0.4515262 0.1345835 -0.0989067 0.9536365 0.2842442 161 144 126
0.06605625 0.2240012 0.07305336 0.2699509 0.9154217 0.2985459 154 122 102
0.01466942 0.3406988 0.1074171 0.04102964 0.9529178 0.3004404 200 44 29
-0.006967545 0.3917121 0.1246214 -0.01694783 0.952799 0.3031286 152 92 71
0.08155441 0.2934461 0.09755993 0.2550074 0.9175583 0.305054 153 127 100
-0.01656151 0.4482463 0.1567268 -0.03485573 0.9433894 0.3298509 143 121 99
0.1043606 0.221915 0.08433723 0.4024296 0.8557364 0.3252166 157 132 103
0.1254988 0.2449006 0.1049719 0.4261048 0.8315086 0.35641 154 132 104
0.06224728 0.3676527 0.1615124 0.1531821 0.9047435 0.39746 147 124 98
0.1623087 0.238697 0.139348 0.5063791 0.7446992 0.4347452 153 132 105
-0.4237566 -0.3683913 -0.5084724 -0.559405 -0.4863168 -0.6712392 163 148 123
-0.4237566 -0.3683913 -0.5084724 -0.559405 -0.4863168 -0.6712392 163 148 123
-0.3649502 -0.2356818 -0.4243069 -0.6009735 -0.3881037 -0.6987178 160 144 119
-0.3524818 -0.365706 -0.4127741 -0.5385535 -0.5587586 -0.6306734 164 145 119
-0.3524818 -0.365706 -0.4127741 -0.5385535 -0.5587586 -0.6306734 164 145 119
-0.3581562 0.2897152 -0.1145859 -0.7544885 0.6103114 -0.2413855 141 122 107
-0.1494017 -0.2506245 -0.1382494 -0.4627271 -0.7762346 -0.4281863 95 85 77
-0.1795101 0.337044 -0.06951809 -0.462484 0.8683491 -0.1791041 152 60 54
-0.1420736 0.4883897 0.0171051 -0.2791657 0.9596546 0.03361044 208 61 49
-0.1420736 0.4883897 0.0171051 -0.2791657 0.9596546 0.03361044 208 61 49
-0.08368492 -0.3655297 -0.01823044 -0.2229043 -0.9736301 -0.04855885 54 69 114
-0.1249762 0.4388213 0.03977394 -0.272873 0.9581225 0.08684244 212 62 53
-0.1096306 0.5120769 0.09203053 -0.2061865 0.9630828 0.1730854 200 42 35
-0.07176113 0.4673961 0.1087856 -0.1478926 0.9632569 0.2241964 198 46 38
-0.06766129 0.4985836 0.137063 -0.1297466 0.9560784 0.2628306 227 211 198
0.01292896 -0.1756866 0.07810211 0.06709411 -0.9117155 0.4053064 47 81 145
-0.04551697 0.4468187 0.1337118 -0.09713137 0.9534931 0.2853356 165 65 75
-0.0220232 0.4656805 0.1611729 -0.04464692 0.944059 0.3267405 173 155 140
0.08824348 0.3076027 0.09153461 0.2651199 0.9241657 0.2750078 149 125 100
0.1358805 0.226535 0.05683422 0.5028758 0.8383762 0.210336 153 131 107
0.1305809 0.2797813 0.1004715 0.4021712 0.861688 0.3094384 152 128 101
0.06030846 0.39126 0.1626616 0.140909 0.9141682 0.3800542 142 122 91
0.1781282 0.2640004 0.1245871 0.5208789 0.7719844 0.3643149 153 131 108
-0.5054245 -0.3683291 -0.4273243 -0.6672735 -0.4862769 -0.5641637 164 148 127
-0.5054245 -0.3683291 -0.4273243 -0.6672735 -0.4862769 -0.5641637 164 148 127
-0.4320107 -0.2354918 -0.3557863 -0.7114977 -0.3878421 -0.5859604 164 146 123
-0.4166117 -0.3655623 -0.3469334 -0.6371343 -0.5590632 -0.5305735 163 146 118
-0.4166117 -0.3655623 -0.3469334 -0.6371343 -0.5590632 -0.5305735 163 146 118
-0.3850269 0.280287 -0.08556843 -0.7957268 0.579263 -0.1768424 145 124 107
-0.1994267 0.3344899 -0.04696178 -0.5084174 0.8527472 -0.1197242 151 63 56
-0.2608328 -0.09336159 0.07153225 -0.9116073 -0.3262976 0.2500043 93 86 79
-0.1940613 -0.1830314 0.07662678 -0.6992033 -0.6594626 0.2760865 50 64 105
-0.1495237 0.473128 0.02547932 -0.3009454 0.9522615 0.05128204 209 71 58
-0.1317921 0.4257885 0.04753685 -0.2940171 0.9498985 0.1060507 214 74 66
-0.05347252 0.197804 -0.01228046 -0.2604961 0.9636196 -0.05982536 188 45 32
-0.1180096 0.5062439 0.1019087 -0.2227807 0.9556969 0.1923852 207 50 41
-0.07730293 0.4692933 0.1154041 -0.1579487 0.9588802 0.2357987 205 52 40
-0.07822704 0.505699 0.1497736 -0.1467173 0.9484547 0.2809052 181 60 45
-0.05407619 0.448954 0.1226454 -0.1154153 0.9582064 0.261763 198 51 37
-0.009670258 0.3396379 0.09362221 -0.02743818 0.9636813 0.2656416 202 53 36
-0.009670258 0.3396379 0.09362221 -0.02743818 0.9636813 0.2656416 202 53 36
0.05934811 0.3037409 0.04068089 0.1901288 0.9730705 0.1303261 204 47 35
0.0815134 -0.07235865 0.02134895 0.7339088 -0.6514837 0.192216 161 138 116
-0.02671528 0.4805638 0.1666889 -0.05244945 0.9434789 0.3272562 241 228 212
0.1214314 0.2369417 0.07445526 0.4392355 0.8570538 0.2693159 154 132 108
0.1871309 0.2938324 0.1120358 0.5113794 0.8029662 0.3061641 154 133 105
-0.5708418 -0.3682975 -0.3345289 -0.7538449 -0.486368 -0.4417738 162 144 124
-0.5708418 -0.3682975 -0.3345289 -0.7538449 -0.486368 -0.4417738 162 144 124
-0.215682 -0.06850547 -0.7426901 -0.2777968 -0.08823452 -0.9565791 159 144 121
-0.4863248 -0.2360323 -0.2764063 -0.8010044 -0.3887585 -0.4552568 165 148 125
-0.4683957 -0.3655898 -0.270834 -0.7173045 -0.5598668 -0.4147571 166 147 120
-0.4683957 -0.3655898 -0.270834 -0.7173045 -0.5598668 -0.4147571 166 147 120
-0.4217482 0.2613554 -0.02954865 -0.8485153 0.525821 -0.05944893 146 130 111
-0.2136912 0.3190656 -0.02411842 -0.555373 0.8292356 -0.06268259 132 74 63
-0.2595968 -0.1093405 0.06906414 -0.8950779 -0.377001 0.23813 101 87 74
-0.1492686 0.4525318 0.02445889 -0.3128391 0.9484218 0.05126124 211 73 64
-0.09776354 -0.3721032 -0.004516602 -0.2540908 -0.9671091 -0.01173881 49 71 124
-0.1041517 0.3959109 0.06124878 -0.2516121 0.9564504 0.1479662 214 72 69
-0.1145577 0.5055458 0.08611012 -0.2180115 0.9620896 0.1638737 210 58 42
-0.06517363 0.1821851 0.007247925 -0.3365932 0.9409058 0.03743235 181 43 36
-0.1091223 0.49468 0.08660984 -0.2123318 0.962556 0.1685268 211 61 48
-0.07659721 0.4670943 0.1141806 -0.1573129 0.959303 0.2345003 211 72 61
-0.04870224 0.451322 0.1133013 -0.1040939 0.964635 0.2421649 212 62 49
-0.02364206 0.3617483 0.08255482 -0.06358792 0.9729618 0.2220402 211 69 54
-0.04722691 0.4991235 0.132411 -0.09107608 0.962549 0.2553518 199 47 36
0.08360291 -0.1589364 -0.01177788 0.4645398 -0.8831307 -0.06544382 47 79 145
0.05365658 0.3110331 0.05068779 0.1678491 0.9729772 0.1585621 200 52 37
0.06506205 0.4228315 0.1345425 0.1450771 0.9428409 0.3000063 228 213 200
0.1619949 0.02121997 -0.02687645 0.9783796 0.1281595 -0.1623222 165 142 114
0.1300449 0.236448 0.03664875 0.4775307 0.8682475 0.1345758 157 135 106
0.0805192 0.4377589 0.1445007 0.1720603 0.9354407 0.3087815 220 207 194
0.1324439 0.2542084 0.05400181 0.4540666 0.8715202 0.1851382 156 133 108
0.14252 0.3113238 0.07673359 0.4061692 0.8872452 0.2186839 152 129 104
0.1597195 0.3111281 0.08557701 0.4436063 0.86413 0.2376824 150 132 102
0.1597195 0.3111281 0.08557701 0.4436063 0.86413 0.2376824 150 132 102
0.1935182 0.3261397 0.09845066 0.4939181 0.8324091 0.2512765 152 129 107
-0.6195359 -0.3683011 -0.2309341 -0.8185866 -0.4866325 -0.305131 163 144 121
-0.6195359 -0.3683011 -0.2309341 -0.8185866 -0.4866325 -0.305131 163 144 121
-0.3418276 -0.07551743 -0.6729965 -0.4506035 -0.09954847 -0.8871565 156 144 125
-0.3418276 -0.07551743 -0.6729965 -0.4506035 -0.09954847 -0.8871565 156 144 125
-0.5285034 -0.2361376 -0.1833334 -0.8703989 -0.388898 -0.3019341 166 146 124
-0.5151315 -0.3665823 -0.1669693 -0.7877495 -0.5605852 -0.2553329 165 148 121
-0.5151315 -0.3665823 -0.1669693 -0.7877495 -0.5605852 -0.2553329 165 148 121
-0.4346683 0.2909572 0.0108223 -0.8308313 0.5561398 0.02068589 145 130 108
-0.4346683 0.2909572 0.0108223 -0.8308313 0.5561398 0.02068589 145 130 108
-0.326673 0.2291149 -0.03928661 -0.8147693 0.5714452 -0.09798643 149 131 106
-0.326673 0.2291149 -0.03928661 -0.8147693 0.5714452 -0.09798643 149 131 106
-0.3111417 0.2541665 0.02736473 -0.7726597 0.6311728 0.06795496 153 133 110
-0.2933178 0.1517256 -0.001293182 -0.888199 0.4594422 -0.0039159 177 155 138
-0.3076286 -0.1628601 0.06371689 -0.8693452 -0.4602357 0.1800612 131 117 101
-0.2653263 -0.1230338 0.08304214 -0.8727113 -0.4046829 0.2731423 99 88 79
-0.2077539 0.2943434 -0.04024124 -0.5730862 0.8119422 -0.1110049 142 115 92
-0.2664697 -0.05918423 0.1099224 -0.9055437 -0.2011257 0.3735492 101 89 78
-0.2176275 -0.03345574 0.07875061 -0.9306554 -0.1430691 0.3367666 100 88 77
-0.197494 -0.1227158 0.07813072 -0.8051431 -0.5002875 0.3185231 99 86 75
-0.1587496 -0.2719607 0.003076553 -0.5040978 -0.8635914 0.009769372 94 83 79
-0.1482983 0.4290243 0.02081108 -0.3263544 0.9441374 0.04579815 207 66 52
-0.115068 0.489141 0.08688927 -0.2256454 0.9591935 0.1703877 213 66 47
-0.09485841 0.3860497 0.03638077 -0.2376247 0.9670723 0.09113549 220 105 94
-0.06104851 0.1664051 -0.004289627 -0.3443194 0.9385408 -0.02419391 176 40 30
0.003235579 0.3351665 0.06071854 0.009498602 0.9839394 0.1782498 214 78 59
0.02222252 0.3616443 0.05288124 0.06068989 0.9876537 0.1444191 207 50 40
0.06023884 0.3143046 0.03201675 0.1872966 0.9772463 0.09954754 197 53 44
0.08922958 -0.3076393 0.05047035 0.2751705 -0.9487131 0.1556429 124 80 67
0.06290555 0.4406967 0.1400566 0.1347949 0.944331 0.3001153 238 218 202
0.06290555 0.4406967 0.1400566 0.1347949 0.944331 0.3001153 238 218 202
0.09935451 -0.2931899 0.03658485 0.3187288 -0.9405518 0.117364 119 81 68
0.126744 -0.3373594 -0.01894379 0.3512084 -0.9348246 -0.05249333 174 146 120
0.1536174 0.1868621 -0.03203964 0.6295462 0.7657878 -0.1313031 159 137 113
0.1557069 0.2336882 -0.02513313 0.5522824 0.8288771 -0.08914562 157 135 110
0.1412671 0.2705755 0.02748108 0.460952 0.8828831 0.08967029 154 133 117
0.148237 0.01682287 0.01314926 0.9897849 0.112327 0.08779819 164 142 114
0.1963027 0.3574221 0.08763695 0.4706462 0.8569388 0.2101143 149 128 102
0.1963027 0.3574221 0.08763695 0.4706462 0.8569388 0.2101143 149 128 102
-0.6513578 -0.3686225 -0.1135845 -0.8604447 -0.4869509 -0.1500454 163 144 117
-0.6513578 -0.3686225 -0.1135845 -0.8604447 -0.4869509 -0.1500454 163 144 117
-0.5514376 -0.2359836 -0.09393692 -0.9082829 -0.3886929 -0.1547252 162 144 120
-0.5367531 -0.3660562 -0.08183098 -0.8196878 -0.5590128 -0.124966 163 145 121
-0.5367531 -0.3660562 -0.08183098 -0.8196878 -0.5590128 -0.124966 163 145 121
-0.4449107 0.2566569 0.04988289 -0.8621481 0.4973499 0.09666308 144 130 112
-0.4449107 0.2566569 0.04988289 -0.8621481 0.4973499 0.09666308 144 130 112
-0.4062558 -0.1120087 0.1310368 -0.9205541 -0.2538057 0.2969223 162 142 118
-0.4062558 -0.1120087 0.1310368 -0.9205541 -0.2538057 0.2969223 162 142 118
-0.3782505 -0.1467391 0.1225739 -0.8924623 -0.3462233 0.2892066 136 119 96
-0.3784105 -0.1480789 0.1249962 -0.8900797 -0.3483044 0.2940103 135 120 97
-0.3476884 0.2049955 0.05251312 -0.8542222 0.5036456 0.1290175 153 134 115
-0.3415599 0.1527943 0.05844498 -0.9018916 0.4034545 0.1543244 162 148 129
-0.3158297 0.2313241 0.04685211 -0.801035 0.5867046 0.1188304 153 132 114
-0.3132964 -0.180931 0.08849335 -0.8411688 -0.4857813 0.2375956 106 94 84
-0.3052799 0.1344643 0.0524807 -0.9040393 0.3981954 0.1554135 208 195 180
-0.2690746 -0.1401594 0.09968948 -0.8425722 -0.438891 0.3121647 103 91 83
-0.214447 0.2699763 -0.01016998 -0.6217079 0.7826941 -0.02948402 147 117 105
-0.2247669 -0.1807858 0.1090679 -0.7288586 -0.5862397 0.3536779 97 89 76
-0.2229133 -0.05305885 0.1030445 -0.8872369 -0.2111842 0.4101366 101 87 85
-0.2024815 -0.1369642 0.1020317 -0.764389 -0.5170545 0.3851805 94 86 80
-0.1514523 0.403747 0.03425026 -0.3501167 0.9333538 0.07917733 201 67 51
-0.1141011 0.4684031 0.08017921 -0.2334683 0.9584243 0.1640589 215 95 90
-0.09672171 0.3734587 0.04557419 -0.2489856 0.9613753 0.1173192 251 208 203
-0.09672171 0.3734587 0.04557419 -0.2489856 0.9613753 0.1173192 251 208 203
-0.09680203 0.3720243 0.04865074 -0.2498255 0.9601159 0.1255573 254 213 214
-0.06125914 0.1384145 -0.006685257 -0.4043182 0.9135535 -0.04412355 158 46 36
-0.04108053 0.4584617 0.1238365 -0.08618311 0.9618096 0.2597974 217 67 58
-0.01322632 0.4915945 0.1388874 -0.02588278 0.9620082 0.2717907 205 48 40
0.02730457 0.3871779 0.06637955 0.06934059 0.9832473 0.1685724 208 57 36
0.02730457 0.3871779 0.06637955 0.06934059 0.9832473 0.1685724 208 57 36
0.06042117 0.3182678 0.03077507 0.1856765 0.9780492 0.09457296 199 52 45
0.06042117 0.3182678 0.03077507 0.1856765 0.9780492 0.09457296 199 52 45
0.05496237 0.4745542 0.1430149 0.110217 0.951632 0.2867903 221 199 188
0.06307545 0.4553624 0.1380787 0.1314074 0.9486734 0.2876644 232 213 195
0.1062543 0.1096309 -0.04549026 0.6669841 0.6881797 -0.2855535 156 132 107
0.1244283 0.1508543 -0.05094147 0.615752 0.7465249 -0.2520913 160 136 109
0.1294606 -0.3228617 -0.03702736 0.3700827 -0.922949 -0.1058483 174 145 116
0.1446148 0.2894002 0.004091263 0.4469669 0.8944612 0.01264503 187 166 145
0.1471384 0.03042647 0.01896477 0.9715728 0.2009097 0.1252267 163 141 117
0.1558408 0.2519191 -0.02775002 0.5237949 0.8467228 -0.09327029 155 133 103
0.1725044 -0.3017826 -0.04825401 0.4915494 -0.8599262 -0.1374993 161 134 114
0.1961678 0.3896013 0.08307838 0.4417778 0.8773981 0.1870959 147 129 105
-0.661612 -0.368527 -0.0004901886 -0.8736157 -0.486616 -0.0006472622 161 144 117
-0.661612 -0.368527 -0.0004901886 -0.8736157 -0.486616 -0.0006472622 161 144 117
-0.559304 -0.2359739 0.008728027 -0.9212586 -0.3886848 0.01437639 160 145 119
-0.543169 -0.3656291 0.00435257 -0.829545 -0.5584003 0.006647382 164 144 115
-0.543169 -0.3656291 0.00435257 -0.829545 -0.5584003 0.006647382 164 144 115
-0.4470088 0.2115408 0.05880928 -0.8975702 0.4247628 0.118086 148 131 113
-0.4470088 0.2115408 0.05880928 -0.8975702 0.4247628 0.118086 148 131 113
-0.4068088 -0.144478 0.125309 -0.9049817 -0.321404 0.2787608 157 138 117
-0.377872 -0.1733577 0.1028347 -0.882322 -0.4047861 0.2401166 110 98 85
-0.3491923 0.1728295 0.06737709 -0.883126 0.4370952 0.1704003 173 157 143
-0.3308015 -0.1060746 0.1304111 -0.8914943 -0.285866 0.3514519 162 141 117
-0.306855 0.1074995 0.07657433 -0.9186298 0.3218204 0.2292401 215 197 182
-0.2696476 -0.1596005 0.1070175 -0.8143708 -0.4820141 0.3232068 101 91 80
-0.2592261 -0.2620986 0.1107731 -0.673452 -0.6809143 0.287781 167 146 122
-0.2248664 -0.1991025 0.103056 -0.7081668 -0.6270294 0.3245519 134 118 96
-0.2157515 0.2475696 0.01986694 -0.6558005 0.7525151 0.06038776 145 114 98
-0.202722 -0.1539085 0.1019516 -0.7393583 -0.5613281 0.3718333 99 87 75
-0.1145522 0.4426304 0.07756233 -0.2470153 0.9544685 0.167252 222 113 109
-0.09675874 0.3556245 0.03168106 -0.2615725 0.9613765 0.08564491 243 202 197
-0.09675874 0.3556245 0.03168106 -0.2615725 0.9613765 0.08564491 243 202 197
-0.06232646 0.1064243 0.01992798 -0.4988858 0.8518621 0.1595115 91 48 52
-0.06232646 0.1064243 0.01992798 -0.4988858 0.8518621 0.1595115 91 48 52
-0.06150854 0.47936 0.1184254 -0.1236134 0.9633672 0.2379988 219 94 85
-0.04106001 0.448602 0.1107769 -0.08851088 0.9670276 0.2387959 217 96 89
-0.0131983 0.4854783 0.1251469 -0.02631645 0.9680085 0.2495338 215 64 50
0.02729462 0.3893284 0.06243515 0.06905723 0.985027 0.1579651 210 61 51
0.02729462 0.3893284 0.06243515 0.06905723 0.985027 0.1579651 210 61 51
0.03394692 -0.3672388 -0.007003784 0.09202928 -0.9955752 -0.01898709 164 140 113
0.06025833 0.3223813 0.01146698 0.183622 0.9823757 0.03494273 198 56 39
0.06025833 0.3223813 0.01146698 0.183622 0.9823757 0.03494273 198 56 39
0.06285138 0.4635513 0.1179295 0.1302812 0.96087 0.2444495 143 122 107
0.08352633 0.4772336 0.1202984 0.1673205 0.9559975 0.2409825 210 190 176
0.08937936 -0.2938955 -0.02033806 0.290326 -0.9546447 -0.06606299 72 87 136
0.1245702 0.1605127 -0.0383091 0.6024871 0.7763243 -0.185283 157 135 114
0.1440744 0.3102462 -0.006067276 0.4211209 0.9068311 -0.01773429 225 209 196
0.1551135 0.2714904 -0.04687119 0.4905999 0.858682 -0.1482463 190 173 159
0.1721014 -0.2801652 -0.04874992 0.517758 -0.8428624 -0.1466616 176 150 117
0.1950464 0.4214729 0.07029915 0.4152513 0.8973107 0.149666 239 226 216
-0.6523409 -0.3683268 0.1094551 -0.8616361 -0.4864997 0.1445724 162 145 122
-0.6523409 -0.3683268 0.1094551 -0.8616361 -0.4864997 0.1445724 162 145 122
-0.5499839 -0.2355545 0.1034908 -0.9057869 -0.3879426 0.1704425 161 146 119
-0.5331168 -0.3659933 0.1042404 -0.8139134 -0.5587646 0.1591446 165 144 115
-0.5331168 -0.3659933 0.1042404 -0.8139134 -0.5587646 0.1591446 165 144 115
-0.4438269 0.1678847 0.1004601 -0.9150392 0.3461285 0.2071188 152 133 113
-0.3291175 -0.1345419 0.148695 -0.8539724 -0.3491003 0.3858239 104 93 79
-0.2697666 -0.1814678 0.1090965 -0.7866332 -0.5291559 0.318123 129 114 98
-0.2575855 -0.2795101 0.1244488 -0.6440369 -0.6988544 0.3111573 167 146 119
-0.2129047 0.233509 0.04062271 -0.6682537 0.7329254 0.1275044 141 99 90
-0.1180093 0.4127439 0.0596981 -0.2722786 0.952309 0.1377393 208 73 64
-0.09709454 0.3370495 0.0311451 -0.2757303 0.9571573 0.08844623 213 92 80
-0.06362319 0.08426698 0.01468849 -0.5968135 0.7904613 0.1377845 76 44 47
-0.06362319 0.08426698 0.01468849 -0.5968135 0.7904613 0.1377845 76 44 47
0.01015353 0.3489993 0.04057121 0.0288866 0.9928962 0.1154243 209 66 41
0.02831721 0.3915581 0.06813622 0.07106848 0.982704 0.1710033 212 67 43
0.02831721 0.3915581 0.06813622 0.07106848 0.982704 0.1710033 212 67 43
0.0282166 -0.3660876 -0.0386219 0.07642651 -0.9915723 -0.10461 164 141 111
0.04983592 0.3669322 0.02589607 0.1342543 0.9884882 0.06976211 202 56 41
0.05771661 0.326799 -0.002233505 0.1739164 0.9847374 -0.006730179 201 65 55
0.05771661 0.326799 -0.002233505 0.1739164 0.9847374 -0.006730179 201 65 55
0.07826519 -0.3117564 0.01337624 0.2432797 -0.9690646 0.04157873 64 82 133
0.09558749 0.1309329 -0.06018448 0.552773 0.757172 -0.3480409 160 136 112
0.1177061 0.1694363 -0.07310867 0.5377663 0.7741076 -0.3340133 159 137 114
0.1308501 -0.2667614 -0.03336525 0.4376364 -0.8922004 -0.1115922 127 80 56
0.1271269 0.07050781 -0.06987572 0.788177 0.4371429 -0.433224 161 139 113
0.1513243 0.4008334 0.04338455 0.3513959 0.9307907 0.1007449 230 211 195
0.1440246 0.3319373 -0.004522324 0.3980071 0.9172972 -0.01249729 224 207 189
0.1389096 0.2964025 -0.04001617 0.4212253 0.898802 -0.1213439 224 206 192
0.1417036 0.06886668 -0.03227425 0.8811132 0.4282131 -0.2006813 162 140 112
0.15396 0.2932466 -0.0507946 0.459475 0.8751589 -0.1515903 213 195 181
0.1932206 0.451341 0.06453514 0.3901992 0.9114603 0.1303254 211 192 178
0.1932206 0.451341 0.06453514 0.3901992 0.9114603 0.1303254 211 192 178
0.1739695 -0.2561891 -0.03694344 0.5578265 -0.8214605 -0.1184577 119 113 110
-0.6213732 -0.3686354 0.2264605 -0.8206703 -0.4868702 0.2990946 161 145 120
-0.6213732 -0.3686354 0.2264605 -0.8206703 -0.4868702 0.2990946 161 145 120
-0.7082024 -0.05252156 -0.2871609 -0.9245347 -0.06856517 -0.374879 152 135 117
-0.7082024 -0.05252156 -0.2871609 -0.9245347 -0.06856517 -0.374879 152 135 117
-0.5242863 -0.2361906 0.1954155 -0.8632647 -0.3889001 0.3217618 166 147 120
-0.5100908 -0.3655455 0.185955 -0.7793367 -0.5584946 0.2841094 166 146 121
-0.5100908 -0.3655455 0.185955 -0.7793367 -0.5584946 0.2841094 166 146 121
-0.3195534 -0.1649784 0.1820374 -0.7927879 -0.4092991 0.451621 133 120 100
-0.3158107 -0.2589781 0.1237049 -0.7400502 -0.6068724 0.289882 168 147 121
-0.2908888 0.05497261 0.1577625 -0.8671576 0.1638768 0.4702999 152 138 118
-0.2908888 0.05497261 0.1577625 -0.8671576 0.1638768 0.4702999 152 138 118
-0.2640181 -0.2055739 0.1286001 -0.7365039 -0.5734683 0.3587425 165 143 119
-0.2526474 -0.2981984 0.1407785 -0.6081772 -0.7178285 0.3388846 165 144 121
-0.2526474 -0.2981984 0.1407785 -0.6081772 -0.7178285 0.3388846 165 144 121
-0.200192 -0.1929572 0.1150637 -0.6652807 -0.641238 0.3823811 161 142 119
-0.09847069 0.3179004 0.02799797 -0.2948422 0.9518615 0.08383188 205 57 46
-0.05918217 0.07278195 0.02761936 -0.6052064 0.74428 0.2824401 89 46 49
-0.05918217 0.07278195 0.02761936 -0.6052064 0.74428 0.2824401 89 46 49
-0.01901531 0.4629005 0.1087379 -0.03995815 0.9727239 0.2284983 243 154 150
-0.01901531 0.4629005 0.1087379 -0.03995815 0.9727239 0.2284983 243 154 150
-0.03172684 -0.2230369 0.07150555 -0.1342321 -0.9436403 0.3025307 46 71 137
-0.03172684 -0.2230369 0.07150555 -0.1342321 -0.9436403 0.3025307 46 71 137
0.02839947 0.3913027 0.06834221 0.07131246 0.9825804 0.1716107 212 66 48
0.02839947 0.3913027 0.06834221 0.07131246 0.9825804 0.1716107 212 66 48
0.05872631 0.4696403 0.1075134 0.1209965 0.9676213 0.2215148 198 48 31
0.0356617 0.3710783 -0.01240253 0.09560925 0.9948635 -0.03325128 209 53 46
0.03949499 -0.3645238 -0.008150101 0.1076898 -0.9939361 -0.02222264 151 128 104
0.05699778 0.333228 -0.004096985 0.1685864 0.9856124 -0.01211795 188 77 63
0.05699778 0.333228 -0.004096985 0.1685864 0.9856124 -0.01211795 188 77 63
0.06142664 0.3306578 0.003379822 0.1826369 0.983129 0.01004906 181 93 79
0.06142664 0.3306578 0.003379822 0.1826369 0.983129 0.01004906 181 93 79
0.133431 -0.2423199 -0.02527237 0.4803484 -0.8723463 -0.09097996 132 85 67
0.1383886 0.3520988 -0.01826096 0.3653738 0.9296114 -0.04821259 223 203 186
0.1228123 0.08590838 -0.0805254 0.7218329 0.5049292 -0.4732905 162 140 114
0.1356196 0.3171239 -0.04761219 0.3895135 0.9108125 -0.1367471 222 202 189
0.1895947 0.4779577 0.05663776 0.3665095 0.9239498 0.1094876 140 124 103
0.1895947 0.4779577 0.05663776 0.3665095 0.9239498 0.1094876 140 124 103
0.1550751 -0.358242 -0.07787037 0.38958 -0.8999766 -0.1956261 179 151 123
-0.5757108 -0.3683042 0.3252039 -0.7606493 -0.4866165 0.4296708 163 147 124
-0.5757108 -0.3683042 0.3252039 -0.7606493 -0.4866165 0.4296708 163 147 124
-0.4801183 -0.2362018 0.2875452 -0.7903923 -0.388846 0.4733698 162 145 118
-0.4645901 -0.3659919 0.280302 -0.7098455 -0.5591977 0.4282725 163 147 122
-0.4645901 -0.3659919 0.280302 -0.7098455 -0.5591977 0.4282725 163 147 122
-0.3699799 -0.2433112 0.1643324 -0.7833169 -0.5151355 0.3479225 163 148 128
-0.3699799 -0.2433112 0.1643324 -0.7833169 -0.5151355 0.3479225 163 148 128
-0.289712 0.02546816 0.1614981 -0.8708928 0.07655891 0.4854736 154 137 116
-0.2409286 -0.2320796 0.1737347 -0.6391528 -0.6156775 0.4608958 166 145 119
-0.2433891 -0.3180927 0.1590939 -0.5647519 -0.7380915 0.369156 167 146 117
-0.1518354 -0.3311902 0.08102703 -0.4068064 -0.8873441 0.2170924 167 145 118
-0.06015778 0.06745683 0.02595425 -0.6397228 0.7173416 0.2759996 85 42 47
-0.06015778 0.06745683 0.02595425 -0.6397228 0.7173416 0.2759996 85 42 47
0.05103302 0.4891511 0.1194763 0.1008338 0.9664909 0.2360677 213 59 51
0.06519794 0.4695666 0.118701 0.1334094 0.9608367 0.2428884 213 74 60
0.02927399 -0.1111712 0.03950787 0.240819 -0.9145364 0.3250068 39 50 99
0.078866 0.4865748 0.1065798 0.1563823 0.9648222 0.2113355 194 43 38
0.05000401 0.377818 0.01214886 0.1311387 0.9908519 0.03186115 205 55 44
0.07722759 -0.2847382 0.01092625 0.2615867 -0.9644702 0.03700957 45 73 131
0.09382725 -0.2424161 -0.003414154 0.3609254 -0.9325022 -0.01313323 49 80 140
0.09262466 -0.2893936 -0.01571941 0.3044245 -0.9511344 -0.05166415 53 80 144
0.1494913 0.4387125 0.03791142 0.3214655 0.9434054 0.08152454 237 223 204
0.09245014 0.1432972 -0.07902527 0.4918807 0.7624121 -0.4204537 160 139 114
0.1388655 -0.2180635 -0.01525784 0.5362116 -0.8420249 -0.05891622 130 91 73
0.1348 0.37115 -0.02369404 0.340764 0.9382389 -0.05989673 212 189 176
0.1049662 0.2452726 -0.07528973 0.3786528 0.8847916 -0.2715987 219 200 185
0.1913385 0.5019646 0.06033516 0.353955 0.9285787 0.1116133 138 120 99
0.1913385 0.5019646 0.06033516 0.353955 0.9285787 0.1116133 138 120 99
0.1305113 0.3382591 -0.05446529 0.3559737 0.9226125 -0.1485558 228 213 197
0.1121798 0.1017742 -0.09774971 0.6222873 0.5645651 -0.5422405 163 143 112
0.156395 -0.3329378 -0.07467937 0.4166697 -0.8870178 -0.1989619 168 155 134
-0.5041456 -0.3688685 0.4280872 -0.6657249 -0.4870913 0.5652897 162 144 122
-0.5041456 -0.3688685 0.4280872 -0.6657249 -0.4870913 0.5652897 162 144 122
-0.4263382 -0.2356464 0.3626509 -0.7020263 -0.3880252 0.5971561 160 144 119
-0.4118986 -0.3657021 0.3535032 -0.6293386 -0.558755 0.5401164 161 145 120
-0.4118986 -0.3657021 0.3535032 -0.6293386 -0.558755 0.5401164 161 145 120
-0.3699369 0.03558688 0.2407713 -0.8354093 0.080364 0.5437213 153 138 117
-0.3448858 0.03552316 0.2644377 -0.7909405 0.0814667 0.6064456 152 138 117
-0.3617496 -0.3115134 0.177269 -0.7103685 -0.6117194 0.3481035 163 141 117
-0.3408804 -0.279729 0.2048054 -0.7011077 -0.5753342 0.4212346 164 145 122
-0.3408804 -0.279729 0.2048054 -0.7011077 -0.5753342 0.4212346 164 145 122
-0.3883371 -0.2167416 0.130372 -0.8379391 -0.4676768 0.2813119 165 145 121
-0.355813 -0.2991528 0.1626139 -0.7224893 -0.607439 0.3301925 164 144 117
-0.2917786 -0.3100449 0.1706009 -0.636157 -0.6759826 0.3719566 166 144 119
-0.2323503 -0.2599331 0.1858759 -0.5880841 -0.6578968 0.4704562 164 146 120
-0.2308626 -0.3396823 0.1758814 -0.516721 -0.7602832 0.393661 166 145 119
-0.1372671 0.1989267 0.122366 -0.5067053 0.7343143 0.4516994 164 53 49
-0.1393909 -0.3419427 0.09675884 -0.365157 -0.8957738 0.2534753 165 141 116
-0.05885696 0.06698631 0.02755833 -0.6306227 0.7177246 0.2952736 81 43 50
0.05776691 0.4642338 0.1097841 0.1202167 0.9661006 0.2284679 215 65 50
0.06924343 0.480948 0.09508991 0.1398507 0.9713689 0.1920528 208 56 44
0.04091263 0.3819587 0.001420021 0.1065027 0.9943055 0.003696564 203 50 32
0.05031204 0.3379321 -0.0156765 0.1471042 0.9880584 -0.04583554 165 106 89
0.07422543 -0.2169919 0.003135681 0.3236237 -0.9460871 0.01367161 43 69 136
0.094491 -0.268453 -0.01298714 0.3316715 -0.9422929 -0.04558596 47 79 143
0.1391335 0.452229 0.0261097 0.2936122 0.9543353 0.05509908 141 121 102
0.137578 -0.1946785 -0.01606083 0.5758198 -0.8148084 -0.0672211 108 84 80
0.1334219 0.3889244 -0.02493858 0.3238954 0.9441539 -0.06054098 182 166 152
0.08190727 0.2581843 -0.1015768 0.283137 0.8924913 -0.3511306 213 196 184
0.08906651 0.1128852 -0.1240292 0.4690366 0.594469 -0.6531548 159 139 115
0.1700878 -0.3057857 -0.05810928 0.4795271 -0.8620989 -0.163827 141 122 102
0.1909275 -0.3272937 -0.06518269 0.496589 -0.8512679 -0.1695356 172 150 121
0.1909275 -0.3272937 -0.06518269 0.496589 -0.8512679 -0.1695356 172 150 121
0.212738 -0.372383 -0.1215305 0.4772548 -0.8354011 -0.2726406 181 155 123
0.212738 -0.372383 -0.1215305 0.4772548 -0.8354011 -0.2726406 181 155 123
0.2072992 -0.3234445 -0.1341658 0.5094258 -0.7948461 -0.3297046 177 152 120
0.208312 -0.3238311 -0.1333933 0.5111982 -0.7946824 -0.3273474 177 152 120
-0.8041887 -0.002005301 0.1315899 -0.9868725 -0.002460836 0.1614825 155 140 123
-0.4282761 -0.3684519 0.5044479 -0.5654604 -0.4864736 0.6660315 160 144 119
-0.4282761 -0.3684519 0.5044479 -0.5654604 -0.4864736 0.6660315 160 144 119
-0.3567753 -0.2362086 0.4307346 -0.5876355 -0.3890531 0.709452 164 146 121
-0.3470345 -0.3656648 0.4166737 -0.5306061 -0.5590913 0.6370825 164 146 120
-0.3470345 -0.3656648 0.4166737 -0.5306061 -0.5590913 0.6370825 164 146 120
-0.3211756 -0.314423 0.224493 -0.6392738 -0.6258333 0.4468351 167 147 121
-0.3211756 -0.314423 0.224493 -0.6392738 -0.6258333 0.4468351 167 147 121
-0.3364067 -0.3455455 0.2020903 -0.6433631 -0.6608406 0.3864888 167 145 121
-0.1914015 -0.2913097 0.2241249 -0.4618756 -0.7029664 0.5408412 165 144 117
-0.1056108 -0.3528688 0.1265059 -0.2711773 -0.9060622 0.3248294 170 147 120
-0.02302837 0.4068577 0.1067867 -0.0546644 0.9657926 0.2534887 199 42 34
-0.05299568 0.07040676 0.03257275 -0.5640827 0.7494053 0.3467023 82 47 50
0.04156685 0.4699363 0.1123266 0.08571209 0.9690228 0.2316209 219 105 92
0.04583549 0.4532982 0.09973145 0.09827563 0.9719142 0.2138336 226 118 105
-0.02379036 0.2198077 -0.01390457 -0.107392 0.9922335 -0.06276661 158 52 44
-0.02379036 0.2198077 -0.01390457 -0.107392 0.9922335 -0.06276661 158 52 44
0.1075907 -0.197278 0.01010513 0.4783155 -0.8770382 0.04492436 47 75 140
0.1353407 0.4632204 0.02311897 0.280127 0.9587696 0.04785145 139 120 104
0.1353407 0.4632204 0.02311897 0.280127 0.9587696 0.04785145 139 120 104
0.1353407 0.4632204 0.02311897 0.280127 0.9587696 0.04785145 139 120 104
0.1256752 0.4042473 -0.03103161 0.2960769 0.9523622 -0.07310705 195 181 163
0.1205854 0.3536136 -0.0749464 0.3164543 0.9279937 -0.196683 184 166 153
0.05288124 0.237358 -0.149456 0.1852663 0.8315699 -0.5236104 217 201 188
0.1624966 -0.2772087 -0.0633831 0.4961473 -0.8463956 -0.1935263 133 84 70
0.195241 -0.2983832 -0.06082058 0.5397379 -0.8248715 -0.1681367 145 108 76
0.2090731 -0.2700533 -0.08650208 0.5934335 -0.76652 -0.2455277 171 148 115
0.2210703 -0.3636376 -0.1132612 0.5020016 -0.8257403 -0.2571911 175 150 121
0.2178211 -0.3400837 -0.116396 0.5182531 -0.8091477 -0.2769363 178 152 122
0.212739 -0.2676564 -0.1423235 0.574438 -0.7227261 -0.384302 175 149 120
-0.3288765 -0.3687087 0.5745111 -0.4340233 -0.4865904 0.758191 166 149 125
-0.3288765 -0.3687087 0.5745111 -0.4340233 -0.4865904 0.758191 166 149 125
-0.727499 -0.08858324 0.1914048 -0.9604522 -0.1169486 0.2526948 160 142 123
-0.2699919 -0.2360538 0.490109 -0.4445711 -0.3886883 0.807018 164 147 121
-0.2642708 -0.3660672 0.4729972 -0.4041525 -0.5598309 0.7233602 165 146 118
-0.2642708 -0.3660672 0.4729972 -0.4041525 -0.5598309 0.7233602 165 146 118
-0.2980309 -0.02777333 0.2805066 -0.7265206 -0.06770406 0.6838011 129 118 98
-0.2992887 -0.3478047 0.2396541 -0.5781526 -0.6718736 0.462953 167 145 120
-0.1574144 0.06703012 0.3074212 -0.4474238 0.1905217 0.8737926 152 132 112
-0.2662401 -0.08256796 0.2242489 -0.7441962 -0.2307945 0.6268221 163 142 122
-0.1415386 -0.3292851 0.2569323 -0.3209533 -0.7466877 0.5826203 169 147 120
-0.05617523 0.348651 0.1113801 -0.1517038 0.9415482 0.3007872 189 46 35
-0.0237999 0.3843552 0.1067533 -0.05955715 0.9618153 0.2671409 197 42 33
0.04415798 0.4381097 0.09894657 0.09784408 0.9707518 0.2192432 229 123 113
-0.04340076 0.07377489 0.03822613 -0.4629801 0.7869977 0.4077794 74 49 57
0.02008724 0.3600276 0.06484747 0.05482743 0.9826828 0.1769989 224 114 109
0.02382374 0.3104621 0.03260422 0.07609542 0.9916471 0.1041412 209 63 60
-0.01311398 0.2219759 -0.007745743 -0.05893979 0.9976544 -0.03481267 136 69 61
-0.01311398 0.2219759 -0.007745743 -0.05893979 0.9976544 -0.03481267 136 69 61
0.05195522 0.3958793 0.00675106 0.1301056 0.991356 0.01690592 191 55 38
0.1371136 0.4707943 0.02417183 0.2792823 0.9589459 0.04923483 139 118 102
0.1371136 0.4707943 0.02417183 0.2792823 0.9589459 0.04923483 139 118 102
0.132596 0.4180722 -0.02700567 0.3017481 0.9514048 -0.06145667 146 122 100
0.04877472 0.1326193 -0.1033597 0.2785986 0.7575145 -0.5903851 175 153 141
0.1157646 0.3706996 -0.07736683 0.2923449 0.9361421 -0.1953774 160 141 122
0.06309128 0.2863174 -0.1135011 0.2006788 0.9107096 -0.3610207 205 193 181
0.1535063 -0.2460585 -0.06748772 0.5155296 -0.8263533 -0.2266482 124 78 57
0.05590057 0.2330287 -0.1273751 0.20598 0.8586537 -0.4693463 204 185 174
0.2074461 -0.2695917 -0.05328751 0.6024886 -0.7829788 -0.1547636 133 86 65
0.2074461 -0.2695917 -0.05328751 0.6024886 -0.7829788 -0.1547636 133 86 65
0.09083557 0.3220167 -0.1231575 0.2547768 0.9031966 -0.3454338 217 202 186
0.1155729 0.3610526 -0.1218853 0.2902303 0.9066864 -0.3060821 193 179 164
0.2201099 -0.3517777 -0.07126045 0.5227778 -0.8354988 -0.169249 174 147 121
0.2201633 -0.2373905 -0.07942343 0.6604213 -0.7120975 -0.2382455 137 124 113
0.2255068 -0.3382769 -0.08726454 0.5423286 -0.8135332 -0.2098653 178 148 119
0.2303839 -0.3285662 -0.1070423 0.5547144 -0.7911161 -0.2577347 171 146 115
-0.2300568 -0.3683602 0.620986 -0.3035909 -0.4861008 0.8194746 167 147 124
-0.2300568 -0.3683602 0.620986 -0.3035909 -0.4861008 0.8194746 167 147 124
-0.1914835 -0.2355421 0.5257087 -0.3154303 -0.388008 0.8659986 166 148 123
-0.1738882 -0.3662267 0.5136988 -0.2657197 -0.5596334 0.7849864 164 145 119
-0.1738882 -0.3662267 0.5136988 -0.2657197 -0.5596334 0.7849864 164 145 119
-0.07214737 0.2025132 0.1527748 -0.2735585 0.7678615 0.5792705 180 42 37
-0.06463051 0.3219889 0.1087053 -0.1868286 0.9307796 0.3142364 188 46 35
-0.02045631 -0.11532 0.1238129 -0.1200268 -0.6766365 0.7264686 98 84 75
-0.02725601 0.3598194 0.105916 -0.07247527 0.9567801 0.2816367 193 46 38
-0.06041336 0.079263 0.03194356 -0.5772589 0.7573701 0.3052256 65 47 64
-0.06041336 0.079263 0.03194356 -0.5772589 0.7573701 0.3052256 65 47 64
0.02834892 0.3057032 0.0342834 0.09176692 0.9895771 0.1109771 206 59 50
0.08053398 -0.2209696 0.04568243 0.3361418 -0.922308 0.1906745 57 56 76
0.1334419 0.4734415 0.02284813 0.2709931 0.9614623 0.04639985 198 69 58
0.1334419 0.4734415 0.02284813 0.2709931 0.9614623 0.04639985 198 69 58
