ply
format ascii 1.0
comment VCGLIB generated
element vertex 637
property float x
property float y
property float z
property float nx
property float ny
property float nz
property uchar red
property uchar green
property uchar blue
element face 0
property list uchar int vertex_indices
end_header
-0.04830933 -0.3330821 0.0404886 0.142508 0.982561 -0.1194376 177 146 95
-0.04830933 -0.3330821 0.0404886 0.142508 0.982561 -0.1194376 177 146 95
-0.1984386 -0.04671539 0.05601478 0.9386048 0.2209614 -0.2649471 102 149 80
-0.1984386 -0.04671539 0.05601478 0.9386048 0.2209614 -0.2649471 102 149 80
-0.1911869 0.1303751 0.05552185 0.8033859 -0.5478489 -0.2333082 87 131 60
-0.1886139 0.1161803 0.05882704 0.8229145 -0.5068899 -0.2566599 98 148 81
-0.1992798 -0.02705254 0.07492697 0.9285583 0.1260532 -0.3491275 99 148 69
-0.2078381 -0.04401558 0.08502221 0.9082672 0.1923512 -0.3715532 96 145 77
-0.2574177 -0.2644091 -0.2228165 0.5971568 0.6133755 0.516889 104 100 48
-0.21492 0.2610173 -0.2200305 0.5327674 -0.6470383 0.5454359 251 183 129
-0.1779099 -0.2507163 -0.2180293 0.4720451 0.6652211 0.5784932 110 139 71
-0.2682095 -0.2033837 -0.1453669 0.7315121 0.5547069 0.3964724 107 148 74
-0.2682095 -0.2033837 -0.1453669 0.7315121 0.5547069 0.3964724 107 148 74
-0.2685757 0.1069349 -0.1098883 0.8684387 -0.3457736 0.3553236 206 167 60
-0.2462368 0.1179411 -0.1044819 0.8423133 -0.4034464 0.3574061 201 165 67
-0.2469673 -0.04005139 -0.1016226 0.9145425 0.1483139 0.3763177 105 149 86
-0.2240276 0.2861643 -0.1007433 0.5940318 -0.7587933 0.2671309 255 135 11
-0.2480698 -0.07277589 -0.09132671 0.9047647 0.2654296 0.3330885 93 136 67
-0.2269173 0.09803686 -0.09361577 0.8584852 -0.3708981 0.354172 158 150 66
-0.05587387 -0.3780788 -0.1203315 0.1394473 0.9435909 0.3003176 172 145 92
-0.2218094 0.2570009 -0.09069848 0.6312339 -0.7313831 0.2581133 254 131 9
-0.2195454 0.1267329 -0.07474589 0.8307039 -0.4795251 0.2828194 118 153 77
-0.07701111 -0.3603756 -0.09674788 0.2021286 0.9458663 0.2539311 175 147 104
-0.2557297 -0.1900596 -0.03939509 0.7965448 0.5919961 0.1227075 102 146 76
-0.2145691 0.09725663 0.0243156 0.9059922 -0.4106545 -0.1026697 103 150 78
-0.1949368 0.2745348 0.04172683 0.5745603 -0.8091692 -0.1229864 254 133 23
-0.2522449 -0.06322583 0.05843353 0.9463952 0.2372163 -0.2192362 89 135 70
-0.208622 -0.04297961 0.05783534 0.945208 0.1947286 -0.2620358 105 153 87
-0.208622 -0.04297961 0.05783534 0.945208 0.1947286 -0.2620358 105 153 87
-0.2018528 -0.02365034 0.05698085 0.9563293 0.1120496 -0.2699614 98 151 82
-0.2055035 0.1370225 0.0580039 0.8099778 -0.5400646 -0.2286184 76 122 45
-0.1803169 0.124043 0.0572176 0.7970926 -0.5483332 -0.2529309 108 152 80
-0.06029129 -0.3264718 0.04257059 0.1801296 0.9753855 -0.1271863 172 139 91
-0.2139473 -0.03727261 0.08605766 0.9158732 0.1595579 -0.3683987 100 150 80
-0.1656342 0.091014 0.1364384 0.710584 -0.3904575 -0.5853317 101 149 82
-0.1402435 0.281107 0.1355743 0.4098834 -0.8215788 -0.396237 255 133 23
-0.1556988 0.2832882 0.1398442 0.4420645 -0.80432 -0.3970496 255 133 17
-0.141367 0.1873699 0.1425443 0.5147906 -0.6823114 -0.5190778 109 153 83
0.223877 -0.3456483 -0.679441 -0.2817827 0.4350502 0.8551783 172 138 103
-0.2630234 -0.2805626 -0.221987 0.5923365 0.6318355 0.4999214 173 141 95
-0.227459 0.2424552 -0.2177155 0.5723762 -0.6101125 0.5478578 230 187 73
-0.3155422 -0.2710401 -0.1866224 0.6921092 0.5944983 0.4093368 135 97 51
-0.2336998 -0.2140521 -0.1538324 0.6633999 0.6076262 0.4366817 105 149 79
-0.2415028 0.07519834 -0.1079288 0.8781803 -0.2734449 0.392463 193 161 67
-0.2454472 -0.04809312 -0.1020794 0.908581 0.1780281 0.3778712 102 147 82
-0.2574444 -0.08114235 -0.08910465 0.9056787 0.2854554 0.3134665 61 95 35
-0.2906551 -0.2473098 -0.07671118 0.7466769 0.6353253 0.1970668 110 149 76
-0.2285252 0.1111208 -0.07929039 0.8584953 -0.417445 0.2978684 101 118 48
-0.03206825 -0.368992 -0.1263618 0.08194373 0.9428819 0.3228913 173 149 105
-1.19368 0.3118908 0.1633949 0.959144 -0.2506101 -0.1312909 255 132 13
-0.21842 0.1220509 -0.05273676 0.8541884 -0.477312 0.2062408 111 152 82
-0.3279037 -0.201251 -0.02133751 0.8509718 0.5222842 0.05537484 108 149 76
-0.2491417 -0.01743228 0.04810572 0.9795557 0.06853887 -0.1891383 92 148 77
-0.224926 0.1189502 0.04617548 0.8697895 -0.4599809 -0.1785607 105 151 81
-0.224926 0.1189502 0.04617548 0.8697895 -0.4599809 -0.1785607 105 151 81
-0.2024021 0.2804308 0.04364491 0.5806358 -0.8044785 -0.1252052 255 132 23
-0.2465305 -0.0603762 0.05690861 0.9477656 0.2321111 -0.2187803 102 150 82
-0.2278805 0.1313757 0.06992674 0.8372595 -0.4826895 -0.256919 109 153 81
-0.08782959 -0.3208501 0.04996443 0.261098 0.9538164 -0.1485332 169 134 93
-0.2213535 -0.03178909 0.08801842 0.9210665 0.1322765 -0.3662504 105 151 88
-0.1653728 0.101399 0.1361885 0.6977246 -0.4278124 -0.5745929 105 154 82
-0.1610012 0.2007543 0.14782 0.5425055 -0.6764566 -0.4980904 143 172 98
-0.24617 -0.2963322 -0.2278361 0.5500107 0.6620865 0.5090477 176 146 100
-0.222867 0.222498 -0.2198019 0.58032 -0.5793591 0.5723388 213 173 67
-0.2479153 0.06509101 -0.1059432 0.8938729 -0.2346894 0.3819844 68 102 23
-0.2314606 0.09793018 -0.1113281 0.8420464 -0.3562669 0.4050083 202 169 71
-0.2571678 -0.05812292 -0.0982914 0.9139518 0.2065637 0.349319 85 127 67
-0.2402792 -0.07366986 -0.1031208 0.8845085 0.2711912 0.3796052 66 100 45
-0.2606287 -0.256351 -0.08709002 0.693525 0.6821421 0.2317439 103 102 58
-0.2386646 0.07994115 -0.09098196 0.8917503 -0.2986934 0.3399464 120 110 41
-0.251853 -0.05828445 -0.06189585 0.9474714 0.2192662 0.2328523 107 152 77
-0.03191566 -0.365411 -0.1264691 0.08225843 0.9417989 0.3259576 179 151 105
-0.2558098 -0.2101544 -0.04640627 0.7652082 0.6286386 0.1388159 106 150 82
-0.2177601 0.1416945 0.02132034 0.8353707 -0.5435683 -0.08178905 110 152 82
-0.01439667 -0.3447914 -0.04999542 0.04128733 0.9888063 0.1433789 175 148 102
-0.2163458 -0.01658469 0.03638124 0.9833478 0.0753817 -0.1653622 86 142 74
-0.2233734 0.1204136 0.04563379 0.8663512 -0.4670227 -0.1769901 108 153 85
-0.2233734 0.1204136 0.04563379 0.8663512 -0.4670227 -0.1769901 108 153 85
-0.2401428 -0.05974626 0.05463314 0.9475986 0.2357575 -0.2155812 103 153 85
-0.2279921 -0.03903543 0.06288481 0.9511347 0.1628476 -0.2623421 107 146 86
-0.233983 -0.05955637 0.07026768 0.9304948 0.2368415 -0.2794378 103 155 86
-0.1052361 -0.3163859 0.05630016 0.3112126 0.935642 -0.1664954 94 66 46
-0.1327009 0.1101958 0.1237974 0.6250136 -0.5190156 -0.5830786 105 156 87
-0.1706028 0.3100343 0.1430936 0.4469437 -0.8122252 -0.3748753 255 133 26
-0.1829405 0.3113161 0.148921 0.4683667 -0.7970358 -0.3812696 254 132 24
-0.1685686 0.3344668 0.1487117 0.4182978 -0.829969 -0.3690234 255 136 21
-0.1685686 0.3344668 0.1487117 0.4182978 -0.829969 -0.3690234 255 136 21
-0.1692829 0.1818185 0.1791501 0.5527005 -0.5936286 -0.5849164 138 172 100
-0.164629 -0.1837239 0.2098985 0.508263 0.5672151 -0.6480246 77 61 39
-0.174614 -0.1763547 0.2322698 0.5137032 0.5188244 -0.6833229 79 60 41
-0.2791004 -0.3007829 -0.1982255 0.6124679 0.6600486 0.4349931 176 148 101
-0.2382183 0.2024118 -0.214076 0.62875 -0.5342429 0.5650292 212 173 71
-0.2659178 -0.2345923 -0.1439123 0.6948529 0.6129984 0.3760482 102 73 28
-0.2504911 0.05396111 -0.1050448 0.9045181 -0.1948524 0.3793147 105 160 91
-0.249157 0.08639304 -0.1038857 0.8790633 -0.3048077 0.3665242 149 125 39
-0.2575989 -0.07001692 -0.09836483 0.9054725 0.2461129 0.3457571 69 105 51
-0.25002 -0.1006599 -0.09248066 0.8774248 0.3532577 0.3245533 99 151 75
-0.2416906 -0.2635378 -0.0954957 0.6530129 0.7120408 0.2580155 155 121 75
-0.2600803 -0.1000735 -0.08699894 0.8908883 0.3427952 0.2980092 88 139 66
-0.211339 0.26835 -0.08273935 0.6013232 -0.7635369 0.2354184 253 136 18
-0.2420483 -0.06690264 -0.0663538 0.9318779 0.257573 0.25546 107 153 81
-0.2619877 -0.2169952 -0.04376936 0.763841 0.6326627 0.1276122 106 151 80
-0.2211838 -0.07261358 -0.05903816 0.9209558 0.3023454 0.2458206 108 155 83
-0.0515604 -0.365176 -0.1177483 0.1331832 0.9432683 0.3041498 179 151 104
-0.2416725 0.1406038 0.03220892 0.8586785 -0.4995745 -0.1144404 113 156 89
-0.2400007 -0.01786593 0.04722786 0.9785763 0.07284633 -0.1925664 110 163 87
-0.2484665 -0.0608455 0.05844736 0.946899 0.2318805 -0.2227413 105 155 86
-0.2295322 0.2877833 0.05300188 0.6171795 -0.7738082 -0.1425145 255 133 23
-0.2615881 -0.2226897 0.08219576 0.7405491 0.6304289 -0.232694 107 154 79
-0.2280169 -0.04912807 0.08181477 0.9224657 0.1987527 -0.3309901 111 154 83
-0.2288017 -0.0258026 0.09036493 0.9250135 0.1043163 -0.3653328 108 154 88
-0.1772814 0.3220775 0.1460328 0.448149 -0.8141784 -0.3691558 254 144 53
-0.1337452 0.007086384 0.1306424 0.7148427 -0.03787538 -0.6982589 100 153 86
-0.1749401 0.3470135 0.1514959 0.4194188 -0.8319648 -0.3632114 255 130 31
-0.1749401 0.3470135 0.1514959 0.4194188 -0.8319648 -0.3632114 255 130 31
-0.2629128 -0.3174956 -0.207243 0.5698336 0.6881357 0.4491757 176 146 101
-0.2303457 0.1806455 -0.2190046 0.6300682 -0.4941225 0.5990468 210 172 66
-0.2393265 -0.2475781 -0.1584702 0.6313719 0.6531407 0.4180632 172 139 93
-0.2513933 0.04133259 -0.1048231 0.9125308 -0.1500329 0.3804967 105 155 86
-0.2462893 0.07314505 -0.1057692 0.8864391 -0.2632621 0.3806821 112 162 91
-0.2467794 -0.08199759 -0.104495 0.8805529 0.292582 0.3728569 94 154 79
-0.2407064 -0.0952612 -0.1009951 0.8662413 0.3428209 0.3634556 80 148 68
-0.2459154 -0.09519804 -0.09759331 0.8745874 0.3385676 0.3470863 80 148 68
-0.2583342 -0.1118003 -0.08822536 0.8757363 0.378996 0.2990783 106 161 87
-0.2666721 -0.2746494 -0.08218288 0.6810924 0.7014668 0.2098987 173 139 87
-0.2593794 -0.09639455 -0.06993389 0.9087876 0.3377376 0.2450274 96 150 76
-0.2360344 0.09699044 -0.07076168 0.8913206 -0.3662584 0.2672125 106 149 85
-0.2472515 -0.2237885 -0.05195045 0.7325739 0.6630561 0.1539224 108 150 85
-0.2875328 -0.2211075 -0.02501583 0.7908408 0.6081421 0.06880446 108 152 79
-0.270422 -0.08144242 -0.03215694 0.9513707 0.2865223 0.1131312 109 152 79
-0.08274841 -0.3694988 -0.1005363 0.2112165 0.9431509 0.2566204 177 150 101
-0.2056742 0.1264785 -0.006459236 0.8515204 -0.5236391 0.02674216 109 154 88
-0.2431316 -0.02074898 0.04901886 0.9768628 0.08336596 -0.1969497 111 161 94
-0.2606392 -0.06352141 0.06528854 0.9440081 0.230068 -0.2364683 106 153 76
-0.2619095 -0.04423055 0.07959652 0.9445402 0.1595113 -0.2870538 94 145 75
-0.2619095 -0.04423055 0.07959652 0.9445402 0.1595113 -0.2870538 94 145 75
-0.2465696 0.1494466 0.07668304 0.8264515 -0.5009148 -0.257026 111 158 87
-0.2541342 -0.05005109 0.09670734 0.919175 0.1810292 -0.3497797 110 156 88
-0.2333193 -0.02518477 0.09292221 0.924396 0.09978044 -0.3681518 109 156 86
-0.1843853 0.3581178 0.1568632 0.4265569 -0.8284696 -0.3628874 255 130 17
-0.1843853 0.3581178 0.1568632 0.4265569 -0.8284696 -0.3628874 255 130 17
-0.2022305 -0.1591999 0.2480555 0.5657526 0.4453718 -0.693951 65 47 34
0.681612 -0.314577 0.01530552 -0.9077774 0.4189567 -0.02038404 170 135 92
-0.2488594 -0.3335004 -0.2167673 0.5303994 0.7107966 0.4620008 175 146 102
-0.2220631 0.1595967 -0.2250729 0.6269844 -0.4506137 0.6354824 198 166 80
-0.2515945 0.02810956 -0.1050014 0.9179882 -0.1025628 0.3831168 99 147 78
-0.24792 0.05920227 -0.1050863 0.8992273 -0.2147317 0.3811571 102 153 83
-0.261941 -0.09517461 -0.09489059 0.8897239 0.3232756 0.3223109 96 144 67
-0.2596493 -0.1243235 -0.08767414 0.8628135 0.4131266 0.2913408 105 151 79
-0.26441 -0.2859719 -0.08392906 0.6636502 0.7177691 0.2106559 176 146 99
-0.2464437 0.0850707 -0.08485508 0.8988557 -0.3102788 0.3094924 93 135 70
-0.253005 -0.08649401 -0.06080055 0.9226791 0.3154333 0.2217323 105 161 95
-0.2309418 -0.2291229 -0.06287956 0.6969964 0.6915069 0.1897744 114 148 76
-0.2400751 -0.09044459 -0.05250072 0.916794 0.345388 0.2004887 84 133 64
-0.1155729 -0.3794729 -0.0788269 0.2857615 0.938271 0.1949046 176 150 103
-0.07993031 -0.3756064 -0.10254 0.201097 0.9449899 0.2579809 174 148 102
-0.2314262 0.1229562 0.01088905 0.882337 -0.4687834 -0.04151566 111 153 81
-0.2570868 -0.02499206 0.0585146 0.9707115 0.09436534 -0.2209402 108 158 89
-0.2589674 -0.06745811 0.06409836 0.9410881 0.2451429 -0.2329336 106 151 87
-0.2344904 -0.01394422 0.08923912 0.9331677 0.05549182 -0.3551321 107 155 81
-0.05713177 -0.3415562 -0.0279789 0.1644412 0.983094 0.08053107 171 134 92
-0.05713177 -0.3415562 -0.0279789 0.1644412 0.983094 0.08053107 171 134 92
-0.1593676 -0.1989756 0.1701679 0.5199479 0.6491718 -0.5551848 129 105 86
-0.164052 -0.1602245 0.1987371 0.5406243 0.5280111 -0.6549273 126 108 76
-0.2045689 -0.1519436 0.2496376 0.5734604 0.4259379 -0.6998 120 96 70
-0.2277479 0.139474 -0.2214746 0.6564319 -0.4020022 0.6383506 111 149 82
0.4202595 0.1819632 -0.6904688 -0.50723 -0.2196195 0.8333576 205 169 69
-0.265214 -0.2857209 -0.1402884 0.6401286 0.6896249 0.3386043 168 141 91
0.2611704 0.1943596 -0.5412626 -0.4134893 -0.3077134 0.8569359 209 171 67
-0.2442427 0.02869379 -0.1154146 0.8990797 -0.1056245 0.4248518 104 152 85
-0.2564306 0.01418479 -0.1015949 0.9284665 -0.05135931 0.3678479 101 145 79
-0.25529 0.04440472 -0.09972477 0.9194654 -0.1599303 0.3591737 103 148 77
-0.259922 -0.1372777 -0.08777332 0.8472821 0.4474916 0.2861195 101 146 87
-0.2786245 -0.2991897 -0.0730505 0.6708831 0.7204008 0.1758938 177 151 100
0.6091146 0.2216718 -0.7702742 -0.6050499 -0.2201925 0.765134 165 162 75
-0.2509022 0.07240547 -0.08164597 0.9170183 -0.2646336 0.2984065 103 156 85
-0.2683334 -0.2380636 -0.03333855 0.744829 0.6608073 0.09253978 72 42 18
-0.1194382 -0.3846091 -0.07573986 0.2914633 0.9385564 0.184827 179 153 107
-0.2579098 -0.03098019 0.0591135 0.9681116 0.1162898 -0.2218934 108 153 82
-1.459732 -0.03778429 1.031338 0.8165379 0.02113559 -0.5769048 102 151 80
-0.2615404 0.1085597 0.06824112 0.8978929 -0.3726957 -0.2342782 83 134 63
-0.2392797 -0.01710769 0.09317684 0.9297808 0.06647616 -0.3620617 109 155 82
-0.2076025 0.3527133 0.1708384 0.4681016 -0.795297 -0.3852059 254 125 4
-0.1504068 -0.1996709 0.1625042 0.5044532 0.6696811 -0.5450268 126 105 81
-0.2403479 0.1189534 -0.2108145 0.7045938 -0.348719 0.618015 112 149 80
-0.2427969 -0.3065822 -0.1621389 0.5735026 0.7241676 0.3829831 174 145 98
-0.2487125 -0.1740554 -0.1163387 0.7650416 0.5353957 0.3578588 107 107 50
0.5871782 -0.03186562 -0.8958807 -0.5479288 0.02973559 0.8359963 87 126 60
-0.2499762 0.02867765 -0.1051912 0.9166068 -0.1051546 0.3857128 101 148 77
-0.248558 -0.3105755 -0.1015358 0.6054333 0.7564945 0.2473191 179 151 102
-0.2611265 -0.1514207 -0.08706856 0.8311908 0.4819866 0.2771476 108 149 82
-0.243865 0.05776434 -0.08870792 0.9173048 -0.2172821 0.3336772 114 158 89
-0.2608509 -0.1340716 -0.07000065 0.8650998 0.4446423 0.2321539 105 150 85
-0.2455521 0.2222655 -0.06453133 0.7277029 -0.6586921 0.191241 112 153 80
-0.2415428 -0.2467457 -0.05888367 0.6895775 0.7044312 0.1681062 167 131 84
-0.2407608 0.111441 0.02075291 0.9047353 -0.4187748 -0.07798564 109 153 85
-0.2553835 -0.03894239 0.05657196 0.9656892 0.147254 -0.2139172 107 154 87
-0.2562437 -0.06421444 0.07390022 0.9341416 0.234095 -0.2694047 104 147 84
-0.2318335 -0.03736323 0.07375145 0.9418986 0.1518002 -0.2996392 109 154 88
-0.2494106 -0.02214177 0.1030073 0.9211788 0.08177889 -0.3804495 108 153 86
-0.06096363 -0.3356883 -0.02428722 0.1782341 0.9814228 0.07100645 100 99 51
-0.1960449 0.3568122 0.1593103 0.4484283 -0.8161635 -0.3644025 255 135 8
-0.1667013 -0.1968699 0.1787863 0.5311232 0.6272426 -0.5696269 132 116 93
0.1091232 -0.3726252 0.08853149 -0.2740136 0.9356796 -0.2223068 173 135 99
0.1808386 -0.2479943 0.0529995 -0.5805997 0.7962096 -0.17016 174 141 102
0.6531553 -0.3323665 -0.1900263 -0.8627151 0.4390037 0.2509947 168 138 99
-0.256464 -0.1869067 -0.1081524 0.7649515 0.557484 0.3225846 172 139 91
-0.256464 -0.1869067 -0.1081524 0.7649515 0.557484 0.3225846 172 139 91
-0.2592545 0.01254529 -0.0954895 0.9374069 -0.04536099 0.345269 78 119 60
-0.2705469 -0.3251579 -0.07753563 0.6291193 0.7561095 0.1802983 174 148 99
-0.2622681 -0.1664436 -0.08633614 0.8134859 0.5162638 0.2677917 114 140 71
-0.2585573 -0.004250725 -0.0830431 0.9519812 0.01565073 0.3057561 34 72 21
-0.2685776 -0.1491029 -0.06191158 0.8570714 0.4758098 0.1975692 110 149 76
-0.248353 0.0423894 -0.08428478 0.9348213 -0.1595572 0.3172549 111 149 81
-0.2664557 -0.2596626 -0.03130627 0.7136551 0.6954609 0.08384838 173 141 97
-0.07738781 -0.3335679 -0.005064964 0.2259731 0.9740213 0.01478974 125 137 88
-0.2209845 0.3942866 0.1878767 0.451465 -0.8055162 -0.3838267 255 130 24
-0.2388735 0.0506719 0.2457409 0.6895202 -0.146267 -0.7093433 118 131 76
-0.22369 -0.1454234 0.2641716 0.5957725 0.3873185 -0.7035905 130 108 82
0.1205196 -0.3582572 0.07398415 -0.3129094 0.9301559 -0.1920877 175 139 102
0.1205196 -0.3582572 0.07398415 -0.3129094 0.9301559 -0.1920877 175 139 102
0.05831528 -0.03459712 0.1592646 -0.3368922 0.1998704 -0.9200845 134 109 79
0.08469582 -0.3014204 0.1536236 -0.2428541 0.8642833 -0.4404954 172 141 98
0.1877975 -0.2852656 0.07631779 -0.5366327 0.8151484 -0.2180786 173 141 108
0.1731405 -0.2888685 0.09868431 -0.4933574 0.82312 -0.2811972 169 137 103
0.1978903 -0.02921591 0.09230137 -0.8982617 0.1326166 -0.4189735 117 94 73
-0.2519436 -0.1981006 -0.1145039 0.7402727 0.5820687 0.3364407 175 145 97
-0.2625608 -0.004325781 -0.09181404 0.9438363 0.01555003 0.330047 106 162 87
-0.2622128 -0.02013496 -0.07884789 0.9550623 0.07333792 0.2871891 98 157 82
-0.2683468 -0.1645109 -0.06284142 0.8360448 0.5125402 0.1957849 110 120 48
-0.2507696 -0.2691342 -0.0525732 0.6748472 0.7242683 0.14148 179 148 107
-0.2642298 0.08275808 0.0742321 0.9217379 -0.2886929 -0.2589509 99 141 82
-0.2660618 -0.08324745 0.08590794 0.9120524 0.28537 -0.29449 97 136 73
-0.2344065 0.3599806 0.20471 0.4925999 -0.7564912 -0.4301935 254 144 36
-0.2374725 0.3611817 0.2098722 0.4942073 -0.75166 -0.436768 255 140 26
-0.0765934 -0.33158 -0.006131172 0.2250321 0.9741848 0.01801344 125 94 70
-0.1290588 -0.3156232 0.06975746 0.3708031 0.9068273 -0.2004224 149 130 100
-0.1126347 0.1446443 0.1940413 0.4219368 -0.5418472 -0.7268913 142 103 80
0.134594 -0.3430513 0.0525322 -0.3615827 0.9215971 -0.1411262 175 141 104
0.134594 -0.3430513 0.0525322 -0.3615827 0.9215971 -0.1411262 175 141 104
0.1882858 0.0568379 0.05862141 -0.9174467 -0.2769499 -0.2856403 91 69 54
0.2248068 -0.2783654 0.02014256 -0.6272985 0.776748 -0.05620558 170 138 103
0.2068739 -0.01170423 0.07774067 -0.9347765 0.0528865 -0.3512775 68 53 45
0.1989422 -0.3323807 0.09654045 -0.4983298 0.8325794 -0.2418239 171 140 101
-0.2612023 -0.2094113 -0.100174 0.7474692 0.5992615 0.2866626 175 145 96
-0.2612023 -0.2094113 -0.100174 0.7474692 0.5992615 0.2866626 175 145 96
-0.2582893 -0.02057547 -0.09936523 0.9307486 0.07414393 0.3580638 112 149 82
-0.267283 -0.1797648 -0.06525135 0.8132661 0.5469732 0.1985413 172 134 86
-0.26438 -0.2803351 -0.0310955 0.6838778 0.7251492 0.08043545 177 148 99
-0.2346826 0.3575001 0.205142 0.4947923 -0.7537342 -0.4325106 255 132 14
-0.2329917 0.3761997 0.20646 0.4771485 -0.770427 -0.4228137 254 135 11
-0.1222358 -0.318656 0.05821133 0.3530529 0.9203724 -0.1681315 149 125 93
-0.1054974 0.1313576 0.195302 0.409017 -0.509278 -0.7571929 144 112 88
-0.09754896 0.0009660603 0.2102718 0.4208335 -0.004167656 -0.9071283 129 105 86
-0.08348656 -0.0470687 0.2165403 0.3525585 0.1987682 -0.9144363 143 118 90
0.04803705 0.05812788 0.1386347 -0.3043859 -0.3683262 -0.8784561 165 146 127
-0.5772333 -0.04229679 1.253947 0.4179591 0.03062597 -0.9079494 142 119 94
0.03913879 -0.09100656 0.1603956 -0.2076079 0.4827354 -0.8508028 145 119 91
0.05839729 -0.09288216 0.1665068 -0.2928596 0.4657995 -0.8350234 146 123 94
0.1452146 -0.328519 0.03270435 -0.4026264 0.9108621 -0.0906771 177 144 106
0.1452146 -0.328519 0.03270435 -0.4026264 0.9108621 -0.0906771 177 144 106
0.1753368 0.1219469 0.07275772 -0.7771077 -0.5404791 -0.3224684 137 117 96
0.1871471 0.007057086 0.1131983 -0.8552068 -0.03224879 -0.5172825 68 55 43
0.1886024 -0.316986 0.1148186 -0.4882171 0.8205513 -0.2972198 178 145 107
-0.2729731 -0.2248283 -0.07811069 0.7537262 0.62079 0.2156772 179 149 105
-0.2729731 -0.2248283 -0.07811069 0.7537262 0.62079 0.2156772 179 149 105
-0.2659197 0.0573148 0.07641411 0.941125 -0.2028447 -0.2704397 128 176 104
-0.2402434 0.3527525 0.2164755 0.5020207 -0.7371233 -0.4523543 255 136 20
-0.2308164 0.3700488 0.2018614 0.4802837 -0.7699993 -0.4200341 254 135 18
-0.2389126 -0.1564282 0.2903814 0.5866169 0.3840879 -0.7129916 146 126 97
-0.1191602 0.1506827 0.2094841 0.4192351 -0.5301392 -0.7370172 156 120 99
-0.1058807 0.1327958 0.1961718 0.4080529 -0.5117806 -0.7560247 149 120 96
-0.1077499 -0.01398972 0.224556 0.4319298 0.05607964 -0.900162 146 122 100
-0.1035247 0.001774343 0.2230749 0.4209471 -0.007214749 -0.9070565 146 118 101
-0.08531761 0.137991 0.1984129 0.3328854 -0.5384021 -0.7741514 148 120 99
-0.09105301 -0.04424546 0.2328272 0.358641 0.1742747 -0.9170632 147 124 101
0.008173466 0.09386271 0.1642942 -0.04315617 -0.4955983 -0.8674791 155 119 97
0.03197527 0.1990728 0.1369429 -0.1311898 -0.8167661 -0.5618562 156 118 97
0.04324484 0.07116111 0.148716 -0.2537218 -0.4175094 -0.8725315 158 128 116
0.03433847 -0.08056489 0.1706543 -0.1790194 0.420015 -0.889685 146 125 103
0.0613184 -0.07912171 0.159297 -0.3259233 0.4205526 -0.8467051 148 122 100
0.1453052 -0.3139525 0.03167439 -0.4182712 0.9037344 -0.09117695 181 147 109
0.1453052 -0.3139525 0.03167439 -0.4182712 0.9037344 -0.09117695 181 147 109
0.160934 -0.1306081 0.1206579 -0.6710445 0.5445951 -0.5031059 165 137 101
0.160934 -0.1306081 0.1206579 -0.6710445 0.5445951 -0.5031059 165 137 101
0.2062945 0.1208973 0.03752613 -0.8523272 -0.4994998 -0.1550431 154 125 97
0.1978679 0.02886593 0.08636379 -0.9084191 -0.1325246 -0.3964995 70 58 47
0.1978679 0.02886593 0.08636379 -0.9084191 -0.1325246 -0.3964995 70 58 47
0.1899524 -0.3002852 0.1105623 -0.5104529 0.8069468 -0.2971106 173 140 101
-0.2724891 -0.3790544 -0.07248688 0.5767861 0.8023562 0.1534352 175 148 102
-0.2715907 -0.2092049 -0.05607986 0.7818251 0.6022357 0.1614365 179 148 100
-0.2664838 -0.1195977 0.08558846 0.8755186 0.3929321 -0.2811964 122 154 91
-0.2618303 -0.08776572 0.07394218 0.915886 0.3070057 -0.2586507 120 165 95
-0.2333827 0.3617665 0.2081814 0.488037 -0.756506 -0.4353374 255 136 18
-0.2485967 0.02995353 0.2614632 0.6866879 -0.08273935 -0.7222285 132 135 89
-0.2355757 -0.1643528 0.2814484 0.5857973 0.40869 -0.6998671 149 131 105
-0.2190628 0.3748311 0.2422523 0.4406239 -0.7539369 -0.4872675 255 132 12
-0.003041267 -0.3050203 -0.2618809 0.007564775 0.7587001 0.6513962 82 27 14
-0.1040483 -0.3160204 0.1002426 0.2994352 0.9094592 -0.2884831 133 91 61
-0.136106 0.1467231 0.2335587 0.4425137 -0.4770325 -0.759356 159 125 104
-0.1196728 0.1515022 0.2108459 0.4186039 -0.5299402 -0.737519 159 125 106
-0.1202617 -0.001336199 0.2248325 0.4716531 0.005240424 -0.8817686 146 125 105
-0.1052785 0.2779871 0.1938057 0.2966816 -0.7833854 -0.5461569 255 138 19
-0.1101918 0.1324333 0.207859 0.4081565 -0.4905401 -0.7699212 151 123 98
-0.1091557 -0.01341804 0.2284489 0.4305218 0.05292222 -0.9010273 158 136 114
-0.09014559 0.1421622 0.2115459 0.3334429 -0.525849 -0.7824951 155 125 105
-0.09142303 -0.0432879 0.2338486 0.3588193 0.1698974 -0.9178145 150 129 107
-0.08103466 -0.01784905 0.2300892 0.3313027 0.07297418 -0.9406983 149 128 108
0.006873608 0.1041087 0.1674957 -0.03483236 -0.5275763 -0.8487932 159 125 104
0.04162502 0.08369459 0.1526279 -0.2325721 -0.467628 -0.8527803 121 77 53
0.1413894 -0.2981426 0.04184341 -0.4250878 0.8963671 -0.1258024 185 150 108
0.1679521 -0.1123024 0.09811211 -0.747779 0.5000078 -0.436828 66 53 42
0.1854184 -0.2845287 0.1229 -0.5133881 0.7878056 -0.3402867 176 142 98
-0.2688954 -0.08331306 -0.07023621 0.9267907 0.2871517 0.2420803 143 133 77
-0.3029332 -0.03032394 0.1490078 0.8937234 0.08946267 -0.4396077 121 146 82
-0.2399056 0.3355792 0.2149715 0.5157402 -0.7214158 -0.4621378 255 138 21
-0.240591 0.3354168 0.2182941 0.5152412 -0.7183166 -0.4674909 255 138 22
-0.233207 0.3509928 0.2069302 0.4967459 -0.7476372 -0.4407745 255 138 17
-0.2470722 0.01928284 0.2556133 0.6939719 -0.0541613 -0.7179621 146 143 109
-0.2400448 0.1943195 0.2486267 0.6054391 -0.490111 -0.6270843 254 148 29
-0.1226885 -0.002830327 0.2336292 0.4649057 0.01072501 -0.8852952 152 131 106
-0.112057 0.1317539 0.2146034 0.4065523 -0.4780145 -0.7785996 154 126 101
-0.1016688 0.2788723 0.1806221 0.2926032 -0.8025953 -0.5198309 255 141 17
-0.1101482 -0.01425586 0.2321053 0.428075 0.05540332 -0.9020434 166 145 129
-0.08121681 0.1284214 0.1997604 0.3235949 -0.5116736 -0.7959123 163 128 99
-0.08452535 -0.01576578 0.2429504 0.3279775 0.06117479 -0.9427027 155 135 109
0.0039289 0.2373239 0.1610451 -0.01369748 -0.8273919 -0.5614579 249 161 124
0.005939245 0.1131089 0.1706505 -0.02899765 -0.5522404 -0.8331804 162 130 109
0.0384109 0.09551731 0.1643124 -0.1980957 -0.4926092 -0.8474044 157 133 109
0.1241097 0.1814125 0.1002712 -0.5137104 -0.7508957 -0.4150389 154 129 108
0.1275117 0.10924 0.1010914 -0.6506032 -0.5573753 -0.5157987 148 128 107
0.1598723 -0.09553118 0.1297588 -0.7043262 0.4208679 -0.5716597 70 53 44
0.1598723 -0.09553118 0.1297588 -0.7043262 0.4208679 -0.5716597 70 53 44
0.185147 -0.2686355 0.1223145 -0.5313712 0.7709826 -0.3510419 184 148 106
0.1883302 0.07262151 0.1160049 -0.8089527 -0.3119382 -0.4982872 165 136 101
0.1883302 0.07262151 0.1160049 -0.8089527 -0.3119382 -0.4982872 165 136 101
-0.2387726 0.3225765 0.2082996 0.5280607 -0.7133983 -0.4606678 255 139 16
-0.2500525 0.006366954 0.2689037 0.6808694 -0.01733662 -0.7321997 150 141 109
-0.2408614 0.1818887 0.2515812 0.6129944 -0.4629084 -0.6402763 221 173 123
-0.2408614 0.1818887 0.2515812 0.6129944 -0.4629084 -0.6402763 221 173 123
-0.2368032 -0.1860654 0.2848949 0.5712137 0.4488247 -0.68722 158 139 117
-0.1308753 -0.3374042 0.07217026 0.3546529 0.9143158 -0.1955708 196 155 114
-0.1308753 -0.3374042 0.07217026 0.3546529 0.9143158 -0.1955708 196 155 114
-0.1347924 0.2890428 0.2203979 0.3476967 -0.7455849 -0.5685158 254 132 15
-0.1364609 0.2897931 0.2367134 0.342617 -0.7275934 -0.5943244 253 130 12
-0.1262 -0.00624222 0.2523212 0.4472157 0.0221206 -0.8941525 176 163 146
-0.1137115 0.1293124 0.2233982 0.4031441 -0.4584544 -0.7920191 158 129 109
-0.1139131 -0.04095198 0.2363968 0.4289098 0.154194 -0.8900902 156 138 115
-0.1108397 0.1454985 0.2312393 0.3759399 -0.4934934 -0.7843044 172 144 125
-0.1111637 -0.0172151 0.2374935 0.4230187 0.06550977 -0.9037498 167 146 125
-0.09393919 0.1463777 0.2309265 0.3249381 -0.5063244 -0.7987809 161 131 112
-0.08774042 0.1296674 0.2356396 0.3101355 -0.4583347 -0.8329138 173 144 128
-0.08546078 -0.01556605 0.2480183 0.3252048 0.05923366 -0.9437866 162 139 119
0.1757774 -0.1808791 -1.170536 -0.1467991 0.1510598 0.9775638 163 140 119
-0.002396822 0.1086126 0.1819096 0.01131212 -0.5126116 -0.8585461 166 135 117
-0.3174173 0.3298336 2.016338 0.1535162 -0.1595212 -0.975185 255 138 20
0.001586914 0.1214532 0.1956577 -0.006890817 -0.5273833 -0.8495996 165 133 115
0.03214192 -0.05780554 0.1832428 -0.1649877 0.2967216 -0.9406037 161 140 119
0.03588688 0.1067295 0.1782379 -0.17022 -0.5062434 -0.8454246 168 139 121
0.04975343 -0.08172679 0.2006474 -0.2238195 0.367654 -0.9026269 154 135 114
0.0515002 -0.04466351 0.1938438 -0.2506321 0.2173605 -0.9433652 157 136 116
0.07296252 -0.2385894 0.1867199 -0.2341325 0.7656195 -0.5991734 129 87 70
0.1254475 0.1249397 0.1117973 -0.5990993 -0.5966741 -0.5339102 153 134 112
0.163246 -0.07827672 0.1046753 -0.7806131 0.3743052 -0.5005384 64 56 46
0.1819152 -0.253621 0.1415157 -0.5308288 0.7400666 -0.4129432 182 147 114
0.1896232 0.09290043 0.1026955 -0.8075744 -0.3956477 -0.4373632 161 133 100
-0.2484382 -0.008499118 0.2521191 0.7016858 0.02400481 -0.712082 169 156 137
-0.2399208 0.3087879 0.2156429 0.5372671 -0.6914848 -0.4829004 255 140 23
-0.2393896 0.1669234 0.2361965 0.6376142 -0.4446004 -0.6291094 174 153 134
-0.08930281 -0.01126033 -1.76293 0.05059001 0.006378973 0.9986991 174 153 134
-0.2347409 -0.1992026 0.264555 0.5782878 0.4907386 -0.6517352 162 141 117
-0.2141598 0.3435521 0.2246037 0.4625802 -0.7420647 -0.4851387 255 138 21
-0.1317602 -0.3431495 0.07994652 0.3502678 0.9122195 -0.2125277 199 159 119
-0.1317602 -0.3431495 0.07994652 0.3502678 0.9122195 -0.2125277 199 159 119
-0.1317602 -0.3431495 0.07994652 0.3502678 0.9122195 -0.2125277 199 159 119
-0.1351432 0.1371774 0.2349434 0.4448782 -0.4515744 -0.7734106 164 139 118
-0.1245682 0.1445276 0.2270737 0.4199959 -0.4872913 -0.7656048 167 137 115
-0.1241374 -0.01060131 0.2317066 0.4718641 0.0402971 -0.8807499 180 164 143
-0.113094 0.1249762 0.2169342 0.4116735 -0.4549263 -0.7896627 171 147 127
-0.1144581 -0.04526794 0.241642 0.4220681 0.1669271 -0.8910633 157 138 117
-0.1095681 0.1413441 0.2184105 0.388143 -0.5007091 -0.7737154 172 144 131
-0.1104024 -0.021715 0.2294559 0.4320039 0.08497067 -0.8978599 164 145 125
-0.1050628 0.2760008 0.1913338 0.2985713 -0.7843488 -0.5437391 255 132 13
-0.09233695 0.1449765 0.2145557 0.3358741 -0.5273495 -0.7804429 162 130 108
-0.09515937 -0.04952199 0.2483807 0.3517175 0.1830377 -0.9180371 160 140 121
-0.09515937 -0.04952199 0.2483807 0.3517175 0.1830377 -0.9180371 160 140 121
-0.08454576 0.1282476 0.2024288 0.3327107 -0.5046896 -0.7966129 172 142 125
0.008522516 -0.3455884 0.0459404 -0.02443853 0.9909837 -0.1317353 196 156 115
-0.00325227 0.1144316 0.191494 0.01457741 -0.5129083 -0.8583196 167 137 118
0.002391649 0.12804 0.1856155 -0.01060569 -0.5677889 -0.8231059 166 139 118
0.004240368 -0.04417423 0.1893806 -0.02180019 0.2271045 -0.9736264 159 140 121
0.017828 0.1022786 0.174612 -0.0877597 -0.5034745 -0.8595415 166 137 117
0.03206982 -0.05220392 0.1832561 -0.16597 0.2701693 -0.9484 164 144 122
0.0357752 0.1165467 0.1777191 -0.165998 -0.5407802 -0.824622 170 140 120
0.03692178 0.1025082 0.1821918 -0.1739254 -0.4828796 -0.8582408 174 147 133
0.03906211 -0.0708138 0.196806 -0.1835845 0.3328114 -0.9249505 161 139 127
0.03906211 -0.0708138 0.196806 -0.1835845 0.3328114 -0.9249505 161 139 127
0.04633321 0.1071825 0.1729431 -0.222038 -0.51364 -0.8287781 159 134 114
0.05168707 -0.03565779 0.1899853 -0.2583145 0.1782056 -0.9494822 157 139 117
0.0732107 -0.2309899 0.1823063 -0.2414319 0.7617511 -0.6012037 162 140 115
0.1181296 0.2050078 -0.01460457 -0.498317 -0.8648033 0.0616078 169 138 119
0.119378 0.2187375 0.1154861 -0.4346502 -0.7964142 -0.4204803 175 141 120
0.1307721 0.06696101 0.1460915 -0.6311689 -0.323186 -0.7051076 154 138 118
-0.2336471 -0.2148702 0.2136955 0.6105924 0.5615225 -0.5584527 164 148 126
-0.1309587 -0.3475675 0.0294323 0.3514867 0.9328542 -0.07899485 203 161 125
-0.124673 0.1371241 0.2269211 0.4255285 -0.468026 -0.7745174 168 144 127
-0.1142537 -0.05266912 0.2224426 0.4470795 0.2060965 -0.8704275 165 146 126
-0.1131266 0.1175614 0.2132092 0.4213741 -0.4378932 -0.794162 175 151 140
-0.1102431 -0.02947775 0.210928 0.4596931 0.1229167 -0.8795304 164 144 120
-0.1053933 0.2724392 0.2135181 0.2912785 -0.7529483 -0.5901064 255 137 22
-0.09489073 -0.05433586 0.2237511 0.3810253 0.2181808 -0.8984525 167 147 130
-0.09489073 -0.05433586 0.2237511 0.3810253 0.2181808 -0.8984525 167 147 130
-0.0857569 -0.363034 0.04667282 0.228117 0.9656858 -0.1241517 195 157 120
-0.08015724 -0.3431683 -0.01920891 0.2271202 0.9723446 0.05442717 195 158 120
0.002386423 0.1324159 0.2029915 -0.009846033 -0.5463286 -0.8375131 172 146 128
0.004207532 -0.04195245 0.1748486 -0.02339333 0.2332502 -0.9721353 165 144 126
0.01777393 0.1070644 0.1672726 -0.08913879 -0.5369431 -0.8388959 171 147 126
0.01777393 0.1070644 0.1672726 -0.08913879 -0.5369431 -0.8388959 171 147 126
0.02219699 -0.06773794 0.1609631 -0.1260903 0.3847862 -0.9143527 162 141 118
0.03199003 -0.04862866 0.1721268 -0.1760574 0.2676282 -0.9473009 162 148 132
0.03567034 0.1240685 0.1731243 -0.1651734 -0.5745056 -0.8016614 179 146 129
0.03667974 0.1103344 0.1596394 -0.185726 -0.5586727 -0.8083258 183 154 138
0.05158085 -0.02942851 0.1836834 -0.2671966 0.1524441 -0.9515076 165 146 130
0.1187757 0.2376862 0.1124573 -0.4116593 -0.8237859 -0.3897606 234 173 128
0.1196391 0.1594947 0.09090996 -0.5459804 -0.7278638 -0.4148732 170 146 127
0.1309637 0.07635026 0.1666222 -0.581379 -0.3389371 -0.7396756 165 144 127
0.1923297 0.1229116 0.1123924 -0.7559507 -0.4831032 -0.4417577 157 134 105
-0.1235904 0.1283998 0.2449551 0.4079888 -0.4238654 -0.8086304 171 149 131
-0.1278368 -0.3566194 0.07567978 0.3309048 0.923107 -0.1958966 197 160 127
-0.1122794 -0.06163073 0.2527008 0.3963175 0.2175406 -0.8919689 169 151 136
-0.112278 0.1087806 0.2272949 0.4070006 -0.3943228 -0.8239297 180 156 142
-0.108431 -0.0393582 0.2390881 0.4084632 0.1482637 -0.9006529 173 154 139
-0.08230233 -0.03026928 0.2537365 0.3065692 0.1127505 -0.9451469 175 154 139
-0.08067322 -0.3405723 0.1333218 0.2153988 0.9093337 -0.3559713 194 159 121
0.007281542 -0.04125224 0.210638 -0.03390501 0.1920826 -0.9807929 173 152 139
0.0145992 -0.02240121 0.20788 -0.06965515 0.1068798 -0.991829 171 152 135
0.02044737 0.1112113 0.1981163 -0.08963655 -0.4875244 -0.8684959 177 153 138
0.02044737 0.1112113 0.1981163 -0.08963655 -0.4875244 -0.8684959 177 153 138
0.02578127 0.0950045 0.2029705 -0.1142875 -0.4211515 -0.899761 175 147 136
0.03527415 -0.04633683 0.2087994 -0.1627274 0.2137619 -0.9632371 177 160 136
0.03799677 0.1307553 0.1995258 -0.1572974 -0.5412952 -0.8259885 181 161 145
0.05376256 -0.02474796 0.2077827 -0.2488459 0.1145487 -0.9617454 171 153 139
0.06274891 -0.04048511 0.219511 -0.2706265 0.1746061 -0.9467176 169 154 138
0.126235 0.1725537 0.1573811 -0.4754998 -0.6499724 -0.5928202 178 152 138
0.1654924 0.2595493 0.1086636 -0.5069653 -0.7950968 -0.3328772 254 141 42
0.1894267 0.1288618 0.08784866 -0.772012 -0.5251788 -0.3580289 150 130 105
-0.2359464 -0.2509087 0.2142715 0.5816746 0.6185607 -0.5282399 173 150 129
-0.2347603 0.2681573 0.2168808 0.5627009 -0.6427508 -0.5198453 255 146 42
-0.1359124 0.2586038 0.2193241 0.3720471 -0.7079029 -0.6003786 254 148 43
-0.1276343 0.08497593 0.2365475 0.4527687 -0.3014428 -0.8391262 173 151 137
-0.1245406 0.1193504 0.2395992 0.4218379 -0.404258 -0.8115591 175 152 136
-0.1127365 -0.07052495 0.2506161 0.3973643 0.2485806 -0.8833511 167 151 139
-0.1134119 0.1000605 0.2208996 0.4236302 -0.3737585 -0.8251315 178 158 143
-0.1134119 0.1000605 0.2208996 0.4236302 -0.3737585 -0.8251315 178 158 143
-0.1051099 0.2610692 0.2243538 0.2920398 -0.7253606 -0.6233497 254 143 31
-0.1006761 0.2607613 0.2424946 0.2720619 -0.7046682 -0.6553053 255 144 29
-0.0929985 0.1283404 0.2256088 0.3372982 -0.4654803 -0.8182653 186 161 144
-0.08322406 -0.03643742 0.2482357 0.3148389 0.1378438 -0.9390824 174 157 141
-0.0776298 -0.3293074 0.153511 0.2089456 0.8863521 -0.4131848 199 164 124
0.01523662 -0.0203025 0.2114506 -0.0715439 0.09533089 -0.9928713 174 158 140
0.02194691 0.1148185 0.2070427 -0.0923055 -0.4829098 -0.8707915 181 154 137
0.02194691 0.1148185 0.2070427 -0.0923055 -0.4829098 -0.8707915 181 154 137
0.02630544 0.09815845 0.2059669 -0.1145346 -0.4273845 -0.8967856 173 145 130
0.03035545 -0.06568944 0.2249413 -0.1284645 0.2779981 -0.9519527 168 150 133
0.03591394 -0.04417971 0.2125416 -0.1632189 0.2007845 -0.9659426 166 152 135
0.03591394 -0.04417971 0.2125416 -0.1632189 0.2007845 -0.9659426 166 152 135
0.04324055 -0.2204474 0.2487698 -0.1290026 0.6576764 -0.7421725 176 156 137
0.03695154 -0.02299279 0.2048492 -0.1764459 0.109792 -0.978168 176 159 142
0.03871059 0.1361096 0.2037258 -0.15606 -0.5487195 -0.8213112 185 162 148
0.04365563 -0.06639006 0.2201939 -0.1864897 0.2836074 -0.9406319 175 159 141
0.06113029 -0.03491882 0.2108421 -0.2750085 0.1570903 -0.9485214 172 156 140
0.1233428 0.09012884 0.1682549 -0.5427426 -0.3965921 -0.7403683 172 157 141
0.1259887 0.1863176 0.1575909 -0.458756 -0.6784285 -0.5738273 185 158 141
0.1433091 0.09279001 0.2400513 -0.486501 -0.3150004 -0.8149181 173 157 138
0.1987648 0.1415441 0.1357689 -0.7118046 -0.5068892 -0.4862074 72 66 47
-0.2247984 -0.2691263 0.2652283 0.5112895 0.6121103 -0.6032445 132 95 64
-0.1192756 -0.04778812 0.2633018 0.4071094 0.1631096 -0.8986975 174 155 139
-0.1091547 -0.08057891 0.2658577 0.3657066 0.2699676 -0.8907167 148 127 99
-0.1069403 0.2825407 0.2497501 0.2728276 -0.720822 -0.6371661 254 136 29
-0.1096897 0.09057094 0.2368336 0.3970382 -0.327835 -0.8572543 179 158 141
-0.09204817 -0.07105114 0.2674103 0.315668 0.2436613 -0.9170511 176 158 139
-0.08965969 0.1209202 0.2394886 0.3169645 -0.4274764 -0.8466389 187 163 147
-0.06957102 -0.05829766 0.2497959 0.2617659 0.2193491 -0.9398748 179 159 145
-0.06740761 -0.320294 0.1949062 0.1769475 0.8407841 -0.5116363 197 161 126
0.001266479 0.1214091 0.211319 -0.005196538 -0.4981582 -0.8670706 187 163 144
0.01925039 -0.0197378 0.2267303 -0.08428348 0.08641747 -0.9926874 179 160 145
0.02714252 0.1171472 0.2268829 -0.1057034 -0.456216 -0.8835688 182 157 141
0.02714252 0.1171472 0.2268829 -0.1057034 -0.456216 -0.8835688 182 157 141
0.03092146 -0.06552309 0.2368774 -0.1248292 0.2645151 -0.9562685 176 159 145
0.04068947 -0.04331981 0.2306747 -0.1708148 0.181857 -0.9683751 159 145 133
0.05691051 -0.01735407 0.2206688 -0.2490078 0.07593146 -0.9655203 175 161 144
0.0655427 -0.0313018 0.2273426 -0.2746238 0.1311545 -0.9525651 175 159 145
0.1748314 -0.004233173 0.2071609 -0.6448771 0.01561434 -0.7641268 116 108 101
0.1982732 0.1522482 0.1348152 -0.6980978 -0.5360489 -0.4746694 75 59 48
0.1632142 -0.1392831 -0.01010895 -0.7598278 0.6484188 0.04706122 61 49 42
-0.2411852 0.06961798 0.2361908 0.6997402 -0.2019797 -0.6852502 179 164 148
-0.2155571 -0.2865716 0.2957087 0.463771 0.6165586 -0.636217 191 156 116
-0.7792368 -0.08545495 -1.242566 0.5303897 0.05816516 0.8457562 191 156 116
-0.2155571 -0.2865716 0.2957087 0.463771 0.6165586 -0.636217 191 156 116
-0.206418 -0.2873854 0.3177347 0.4340556 0.6043137 -0.6681322 190 154 115
-0.1418395 0.08356652 0.224596 0.5093541 -0.3000923 -0.8065377 180 160 141
-0.5491967 0.2120355 -1.011581 0.4692322 -0.1811626 0.8642924 202 172 155
-0.1249161 0.09626448 0.2460546 0.4274196 -0.3293837 -0.8419139 174 153 138
-0.1112552 -0.09140272 0.2600832 0.3742436 0.3074633 -0.874876 116 92 68
-0.5285921 0.2401301 -1.002987 0.4561144 -0.2072047 0.8654628 254 149 34
-0.1064568 0.07914418 0.2471075 0.3795763 -0.2821921 -0.8810729 146 110 86
-0.09750938 -0.07900766 0.2515545 0.3468571 0.2810434 -0.8948211 158 136 115
-0.1027384 0.2428267 0.2344875 0.2911658 -0.6881832 -0.6645496 222 189 171
-0.5586476 -0.1955591 -1.121366 0.4405783 0.154228 0.8843667 110 70 57
-0.09336376 0.1119809 0.2289705 0.3439471 -0.4125317 -0.8435153 191 165 150
-0.08779335 0.09766449 0.2272949 0.3344442 -0.3720478 -0.865868 191 165 151
-0.07187414 -0.06592151 0.2433643 0.2741417 0.2514372 -0.9282379 181 163 148
-0.07598019 -0.3113912 0.1703033 0.2093343 0.8579192 -0.4692056 200 163 127
0.02635622 0.2915856 0.2403994 -0.06957353 -0.7697098 -0.6345915 255 141 30
0.03381824 -0.06617841 0.2581654 -0.1258824 0.2463373 -0.9609743 183 163 147
0.03109598 0.1173611 0.2380457 -0.1163686 -0.4391935 -0.890824 182 158 139
0.04016209 -0.2246613 0.2508373 -0.1184289 0.6624755 -0.7396627 191 172 155
0.8147683 -0.3213668 2.430769 -0.3153434 0.12438 -0.9407912 191 172 155
0.6712656 0.3238891 2.007783 -0.3134328 -0.1512329 -0.9374905 255 143 23
0.0446229 -0.04359797 0.2417583 -0.1787218 0.1746168 -0.9682807 179 163 149
0.05868578 -0.01562468 0.2255688 -0.2512223 0.06688619 -0.9656156 180 163 147
0.06749296 -0.2271186 0.2420921 -0.1992454 0.6704748 -0.7146782 181 161 144
0.06032419 -0.02903524 0.2129221 -0.2702707 0.1300867 -0.9539556 180 164 148
0.08400393 -0.2157093 0.2376566 -0.2532033 0.6501876 -0.7163408 180 163 145
0.1196151 0.2958031 0.1589127 -0.3355681 -0.8298459 -0.4458136 255 142 38
0.1456447 0.001423476 0.224391 -0.54443 -0.005321052 -0.8387893 186 170 156
0.1304717 0.2988843 0.182045 -0.3493308 -0.8002463 -0.4874154 255 141 37
0.1510763 -0.1795057 -0.01529503 -0.6425564 0.763472 0.06505267 66 53 41
0.1548505 -0.1796781 -0.007598877 -0.6524975 0.7571141 0.03201958 66 53 41
0.1112561 0.005020134 -0.2474518 -0.4099966 -0.0185 0.9118994 154 131 105
-0.2401905 0.04799822 0.2404728 0.6997482 -0.1398335 -0.7005706 179 162 147
-0.2401905 0.04799822 0.2404728 0.6997482 -0.1398335 -0.7005706 179 162 147
-0.1325674 0.06943984 0.2470512 0.45896 -0.2404068 -0.8553131 198 180 170
-0.141943 -0.2703894 0.2171907 0.3787773 0.7215387 -0.5795772 183 148 115
-0.8432646 -0.181548 -1.407854 0.5107311 0.1099563 0.8526801 183 148 115
-0.1235042 0.08260895 0.2501068 0.4245384 -0.2839635 -0.8597277 162 134 114
-0.09560871 -0.08915265 0.2563267 0.3322781 0.3098407 -0.8908367 126 108 85
-0.07347822 -0.07451098 0.2400484 0.280594 0.2845378 -0.9166816 183 163 148
-0.05695581 -0.3068891 0.2132769 0.150662 0.8117966 -0.5641695 195 162 124
-0.0777669 -0.3511513 0.02518749 0.2156954 0.9739584 -0.06986039 195 160 123
0.0333581 0.1152513 0.2430906 -0.1230527 -0.4251436 -0.8967223 187 159 146
0.06314707 -0.05485332 0.242754 -0.2459377 0.2136362 -0.9454493 182 166 152
0.0687232 -0.2286108 0.2447443 -0.2010125 0.6686769 -0.7158667 185 164 146
0.0687232 -0.2286108 0.2447443 -0.2010125 0.6686769 -0.7158667 185 164 146
0.07360125 -0.02853625 0.2417679 -0.289394 0.1122022 -0.9506112 184 165 148
0.03978014 -0.2123787 0.1419773 -0.1538624 0.8214429 -0.5491428 185 164 145
0.1419573 0.005855848 0.2166443 -0.5479347 -0.02260273 -0.8362157 200 185 173
0.1356421 0.3098967 0.1934299 -0.3480865 -0.7952611 -0.4963825 255 142 39
0.1916118 0.01049396 0.2043152 -0.6835875 -0.03743787 -0.7289078 100 94 86
0.1360674 -0.03562306 -0.1798468 -0.5959609 0.1560253 0.7877099 162 137 107
-0.2304335 -0.3212367 0.2654943 0.4838863 0.6745636 -0.5575104 191 160 119
-0.2416639 0.02604228 0.2392836 0.7085235 -0.07635219 -0.7015446 179 161 145
-0.1347942 0.05407906 0.2437477 0.4750667 -0.1905954 -0.8590606 191 173 156
-0.1224089 0.06777594 0.2529182 0.4234989 -0.2344849 -0.8750231 203 185 168
-0.1104927 -0.1173314 0.2640657 0.357161 0.3792667 -0.8535765 188 169 150
-0.1012716 0.2430269 0.2588949 0.274264 -0.658166 -0.7011397 198 168 149
-0.09078789 -0.1010968 0.2657089 0.3042119 0.338755 -0.8903371 197 178 158
-0.6830521 0.2094698 -0.832716 0.6225396 -0.1909126 0.7589446 201 172 155
-0.05348873 -0.08534959 0.2771091 0.1814115 0.2894702 -0.9398387 184 163 142
-0.02994919 -0.3038517 0.2624121 0.07439033 0.7547325 -0.6518013 192 159 123
-0.01960373 0.1193537 0.2169361 0.07892746 -0.4805355 -0.8734164 195 170 154
0.774581 0.09773085 1.630828 -0.4284014 -0.0540525 -0.9019703 196 169 153
0.03189373 -0.02728481 0.25278 -0.1244678 0.1064811 -0.9864935 187 171 154
0.8578815 0.3316702 1.713443 -0.4411386 -0.1705509 -0.8810841 255 142 31
0.06010628 -0.05303212 0.2738733 -0.2106313 0.1858412 -0.9597383 180 160 141
0.04171658 0.2795788 0.2349806 -0.1134875 -0.7605779 -0.639251 255 144 27
0.05440044 -0.06768186 0.2553053 -0.2017309 0.2509818 -0.946738 186 170 154
0.1397457 0.279429 0.2281113 -0.3612506 -0.7223399 -0.5896806 255 143 33
0.151845 0.3452138 0.2023935 -0.3547696 -0.8065554 -0.4728709 255 144 39
0.151845 0.3452138 0.2023935 -0.3547696 -0.8065554 -0.4728709 255 144 39
0.03644276 -0.1661007 -0.2463989 -0.1217264 0.5548106 0.8230236 123 101 73
-0.2421055 0.004541378 0.2399445 0.7102066 -0.01332195 -0.7038673 182 162 148
-0.1335382 0.03833426 0.2464571 0.4720019 -0.1354956 -0.8711229 187 167 152
-0.1245613 0.05234094 0.2503242 0.4378873 -0.1840012 -0.879999 190 171 156
-0.1075869 0.03431917 0.2540035 0.3870368 -0.123461 -0.9137614 187 168 150
-0.09162521 -0.1142049 0.2648878 0.3027325 0.3773364 -0.8751973 193 173 155
-0.07838821 -0.08522923 0.2609015 0.2746185 0.2985847 -0.9140196 212 197 181
-0.06564903 -0.2779027 0.2680893 0.1676098 0.7095185 -0.6844637 194 153 112
-0.06255245 -0.09705643 0.2638178 0.217211 0.3370247 -0.916097 206 187 172
0.02949905 -0.03259872 0.2493057 -0.1165268 0.128771 -0.9848043 187 170 152
0.05267048 -0.05967686 0.2631216 -0.1916006 0.2170879 -0.9571636 180 163 145
0.06057072 -0.07221656 0.264451 -0.2157491 0.2572308 -0.9419579 187 168 153
-0.05487442 -0.3526005 0.06467915 0.1513112 0.9722641 -0.1783469 201 165 130
0.1203432 -0.2164015 0.285078 -0.3187057 0.5730976 -0.7549741 187 168 149
0.0316782 -0.3339461 0.08474636 -0.09155952 0.9652047 -0.2449425 148 121 99
0.0316782 -0.3339461 0.08474636 -0.09155952 0.9652047 -0.2449425 148 121 99
0.1655579 0.01593801 0.2653265 -0.5286891 -0.05089612 -0.8472883 188 169 154
0.107832 -0.1636725 -0.05934429 -0.5265538 0.7992287 0.2897839 61 55 48
0.04644394 -0.1605381 -0.2326765 -0.1621222 0.5603915 0.8122054 167 141 109
-0.2385015 -0.016763 0.2458334 0.6954904 0.0488823 -0.7168707 185 165 148
-0.1214247 0.03651882 0.2549829 0.4263958 -0.1282398 -0.8954 188 166 149
-0.1044006 0.01914239 0.2586412 0.3734286 -0.06847003 -0.9251287 184 165 149
-0.1037464 0.2111059 0.2562866 0.2982353 -0.6068571 -0.7367361 193 164 149
-0.09077644 -0.127819 0.266408 0.2936669 0.4135017 -0.8618447 185 165 146
-0.09077644 -0.127819 0.266408 0.2936669 0.4135017 -0.8618447 185 165 146
-0.06599808 -0.09700528 0.2769241 0.2194423 0.3225407 -0.9207674 189 168 150
-0.08258343 0.06659861 0.248517 0.3056212 -0.2464653 -0.9197013 194 171 156
-0.8457251 -0.2090512 -0.7163105 0.7498535 0.1853531 0.6351094 199 165 127
-0.07680607 0.05077656 0.2542448 0.2840428 -0.187781 -0.9402436 189 169 153
-0.07061195 -0.108727 0.2539825 0.2476245 0.3812877 -0.8906749 187 166 149
0.8175793 0.2728781 1.238277 -0.5419034 -0.1808676 -0.8207482 255 155 47
0.03775311 -0.03957986 0.2596216 -0.1422922 0.1491773 -0.9785188 189 169 153
0.0413332 0.09991787 0.2561007 -0.1486848 -0.3594272 -0.9212518 194 172 157
0.05582237 -0.06719566 0.2671585 -0.1986007 0.2390638 -0.9504768 182 160 142
0.8720369 0.295089 1.288036 -0.550802 -0.1863861 -0.8135584 255 142 26
0.05109787 -0.03874908 0.2308331 -0.2132851 0.1617406 -0.963509 188 170 157
0.06749535 -0.02566715 0.2355499 -0.2739592 0.1041813 -0.9560819 188 169 154
0.1078482 -0.2201935 0.2698555 -0.2957927 0.6039199 -0.7401266 188 168 154
-0.05242252 -0.3523258 0.06767178 0.1445837 0.9717306 -0.1866418 199 162 127
0.1421671 0.008703389 0.2372112 -0.5138168 -0.03145558 -0.857323 188 171 157
0.03468037 -0.3327913 0.08831978 -0.1002167 0.9616753 -0.2552198 122 107 100
0.03468037 -0.3327913 0.08831978 -0.1002167 0.9616753 -0.2552198 122 107 100
0.1505775 0.3325028 0.2171068 -0.3545533 -0.7829187 -0.5112047 254 132 17
0.159215 0.3348505 0.2258673 -0.3667241 -0.77127 -0.5202461 255 125 13
0.2123928 -0.1579775 0.2353325 -0.5996616 0.4460275 -0.6644287 59 61 66
0.2192211 0.3123792 0.2330942 -0.4902282 -0.6985508 -0.5212516 255 142 31
0.1191044 -0.1830852 -0.06053066 -0.5255003 0.8077899 0.2670673 167 138 108
0.06300354 -0.1538692 -0.2138052 -0.2326171 0.5681047 0.7893962 168 141 110
-0.2366199 -0.3739187 0.2591228 0.4614405 0.7291914 -0.5053242 185 153 114
-0.2395897 -0.03768345 0.2456379 0.6940658 0.1091649 -0.7115868 181 162 143
-0.1175938 0.01986492 0.2597322 0.4114495 -0.06950547 -0.9087785 173 154 135
-0.1003504 0.003491343 0.2635345 0.3558326 -0.01237996 -0.9344677 172 146 129
-0.07670212 0.05315276 0.255208 0.2822688 -0.1956056 -0.939182 187 169 153
-0.09632206 -0.3164132 0.1751986 0.257349 0.8453788 -0.4680878 196 164 129
0.04812431 -0.04871619 0.2706051 -0.1724052 0.1745256 -0.9694418 189 167 151
0.05742836 -0.07553136 0.2689505 -0.2013638 0.2648392 -0.9430338 173 157 135
0.06731129 -0.04435665 0.2476578 -0.2584451 0.1703096 -0.9508947 186 170 155
0.09123039 -0.03122909 0.2601175 -0.3288583 0.1125715 -0.9376459 187 170 156
0.1130123 -0.226252 0.2752142 -0.3023573 0.6053228 -0.7363181 189 166 150
0.04398346 -0.3322063 0.09772968 -0.1260035 0.9517021 -0.2799753 116 96 85
0.04398346 -0.3322063 0.09772968 -0.1260035 0.9517021 -0.2799753 116 96 85
0.2346869 -0.157574 0.2577629 -0.6134704 0.4118976 -0.6737911 65 68 74
0.1581335 0.3194239 0.1750221 -0.3982434 -0.804437 -0.4407757 255 146 34
0.1768484 0.3177835 0.1909199 -0.4305544 -0.7736744 -0.4648127 255 146 31
0.1768484 0.3177835 0.1909199 -0.4305544 -0.7736744 -0.4648127 255 146 31
0.1903124 0.3416325 0.1804924 -0.4418598 -0.7931888 -0.4190601 255 143 35
0.1925678 0.3421203 0.1823807 -0.4448452 -0.7903219 -0.4213122 255 143 35
